# .PCD v0.7 - Point Cloud Data file format
VERSION 0.7
FIELDS x y z rgb
SIZE 4 4 4 4
TYPE F F F F
COUNT 1 1 1 1
WIDTH 84
HEIGHT 1
VIEWPOINT 0 0 0 1 0 0 0
POINTS 84
DATA ascii
0.032362401 -0.054643631 -0.066537462 0
0.042785183 -0.045781039 -0.041702121 0
0.065496065 -0.024350693 -0.045341738 0
0.022737339 -0.061752133 -0.029883258 0
0.033916675 -0.031367294 -0.044547435 0
0.064044788 -0.01392717 -0.045167353 0
0.010238399 -0.063538998 -0.028002148 0
0.058728062 -0.026513297 -0.035453856 0
0.018964456 -0.038738817 -0.039716996 0
0.064079225 -0.017348927 -0.037189867 0
0.0038332036 -0.066998743 -0.019706126 0
0.019372806 -0.018941564 -0.043117788 0
0.00042934949 -0.043883007 -0.029738536 0
-0.02549416 -0.091526732 -0.0023402032 0
0.0029185116 -0.027412087 -0.038160272 0
-0.0026167408 -0.053163838 -0.018574286 0
-0.020344945 -0.092114672 0.0059290249 0
-0.013826201 -0.08377897 0.0024126507 0
0.057032689 -0.0067099389 -0.025708009 0
0.086036049 0.0071893698 -0.024052363 0
-0.0022202306 -0.036612313 -0.025208753 0
-0.012237913 -0.048619919 -0.01761087 0
-0.026938921 -0.08438693 0.0059723668 0
-0.010027284 -0.022804163 -0.027892815 0
0.0051545077 -0.012102138 -0.029582659 0
0.037204951 0.010491025 -0.03315011 0
0.016550452 0.0067563727 -0.036355421 0
0.053475551 0.014255272 -0.026339401 0
-0.019622983 -0.073128805 0.017782612 0
-0.027607955 -0.044635184 -0.0076208911 0
-0.019665057 -0.037451703 -0.0069219186 0
-0.0092805848 -0.0052700816 -0.027302667 0
0.0065135993 0.0095468676 -0.031908859 0
-0.02234867 -0.045113999 0.00066760462 0
-0.021995869 -0.02463945 -0.015067896 0
-0.0086484766 -0.012472443 -0.018693971 0
-0.020551521 -0.028994057 -0.0026442565 0
0.013475878 0.022154193 -0.024990499 0
0.02475919 0.023712635 -0.021211974 0
-0.015090359 -0.009213686 -0.010183349 0
-0.027379315 -0.019048808 -0.0050905794 0
-0.012941774 0.0093436781 -0.021138813 0
0.03182378 0.022684941 -0.011680318 0
0.041035812 0.033470981 -0.013313169 0
-0.031800911 -0.02381807 0.0051751281 0
-0.016644133 0.00020590238 -0.0044002039 0
-0.029379744 -0.011073384 0.004510188 0
0.0012005148 0.022211406 -0.008392185 0
0.015776291 0.026171194 -0.0048999907 0
0.016376667 0.034852751 -0.0032433411 0
-0.021287782 0.012541333 0.00028849766 0
-0.011259615 0.019610438 -0.00082771108 0
-0.019001456 -0.0057809111 0.01928607 0
-0.0058497544 0.034305647 -0.0019814726 0
-0.02052852 -0.013332046 0.042364217 0
-0.019680159 0.028039534 0.0079345843 0
-0.016400076 0.0044582458 0.032291517 0
0.031823214 0.028717592 0.035150286 0
-0.016116038 0.036282193 0.0083674127 0
0.030946951 0.039418686 0.028604519 0
0.021757618 0.034525227 0.03121043 0
-0.033688743 -0.0029759714 0.038965091 0
-0.043501299 -0.0067244144 0.043223452 0
-0.021649415 0.03589068 0.017385744 0
-0.032207023 0.0054505914 0.041280031 0
0.017551506 0.037897583 0.038010906 0
-0.042389102 0.027430311 0.02584888 0
-0.031914096 0.043534823 0.017075494 0
-0.047773398 0.020630252 0.034870848 0
-0.039712913 0.041088354 0.020992246 0
0.017106688 0.060281646 0.03299446 0
-0.048573744 0.0094676446 0.04721915 0
0.022897888 0.064884976 0.037766721 0
-0.043980144 0.0053275665 0.062184904 0
-0.010769831 0.067593254 0.023868006 0
-0.027039209 0.061757293 0.026411036 0
-0.041323807 0.015406906 0.06356103 0
-0.044513665 0.049908563 0.033721272 0
-0.042395711 0.032376558 0.05364598 0
0.014852932 0.062324844 0.05972356 0
-0.042870238 0.043696005 0.049022567 0
0.00065759337 0.061442029 0.058995575 0
-0.02235852 0.061246466 0.049828235 0
-0.011112906 0.060668427 0.056398842 0
