# .PCD v0.7 - Point Cloud Data file format
VERSION 0.7
FIELDS x y z rgb
SIZE 4 4 4 4
TYPE F F F F
COUNT 1 1 1 1
WIDTH 106
HEIGHT 1
VIEWPOINT 0 0 0 1 0 0 0
POINTS 106
DATA ascii
0.032629181 -0.056743734 -0.062325019 9.1841101e-41
0.034893014 -0.057767794 -0.047241915 2.7587643e-40
0.032524861 -0.057831321 -0.04537376 4.5991316e-40
-0.005916751 -0.077891596 -0.040590633 4.5991316e-40
0.03132242 -0.065990314 -0.034592375 9.1841101e-41
-0.0040997602 -0.078831412 -0.036483482 9.1841101e-41
0.037182204 -0.042709745 -0.040591367 4.5991316e-40
0.025261819 -0.053316168 -0.034937944 2.7587643e-40
0.046053737 -0.030407336 -0.040431321 9.1841101e-41
0.050866429 -0.028263068 -0.037318021 9.1841101e-41
0.052596718 -0.027043344 -0.037510615 9.1841101e-41
0.04824952 -0.025667863 -0.037486661 9.1841101e-41
-0.02348231 -0.1020475 -0.0079651307 9.1841101e-41
0.00033854786 -0.06946221 -0.019317146 2.7587643e-40
0.071152844 -0.0063311253 -0.036846898 9.1841101e-41
-0.02422039 -0.10306217 -0.0018486679 9.1841101e-41
0.0077709774 -0.029313402 -0.037489802 9.1841101e-41
0.056562528 -0.010232985 -0.028844751 4.5991316e-40
-0.0043470152 -0.054383554 -0.018381696 9.1841101e-41
0.0023031896 -0.026281582 -0.036528766 2.7587643e-40
0.059386052 -0.0066468026 -0.027564492 4.5991316e-40
0.034779467 -0.0055644489 -0.035789803 2.7587643e-40
-0.010629643 -0.045341432 -0.022175293 9.1841101e-41
0.010982772 -0.01423349 -0.036466263 9.1841101e-41
-0.021637628 -0.089739673 0.0093565341 2.7587643e-40
0.056958251 0.006684118 -0.030216977 4.5991316e-40
0.028311031 0.0011015534 -0.03527759 2.7587643e-40
0.046821501 0.0048417714 -0.030317891 9.1841101e-41
0.066588156 0.015052509 -0.029710084 9.1841101e-41
0.027861459 0.0082441233 -0.032670315 9.1841101e-41
-0.025681838 -0.050146524 -0.0081704371 2.7587643e-40
-0.015381997 -0.029934542 -0.01922523 9.1841101e-41
-0.0095676817 -0.019360257 -0.024826536 5.52113e-40
-0.018408528 -0.077604681 0.018847987 2.7587643e-40
-0.015999578 -0.028799893 -0.01758774 9.1841101e-41
-0.005324502 -0.012038173 -0.025867634 1.6563348e-39
-0.0028172676 -0.0065761721 -0.028983347 5.52113e-40
-0.026932787 -0.04784821 -0.0048535876 9.1841101e-41
-0.024181511 -0.042219803 -0.0080022793 9.1841101e-41
-0.010794943 -0.017105464 -0.021572495 9.1841101e-41
0.0046982989 0.0030383626 -0.030403011 2.7587643e-40
0.0063696746 0.0042165569 -0.030589048 2.7587643e-40
-0.020395515 -0.033624191 -0.0073979544 9.1841101e-41
-0.023996385 -0.051105145 0.0074498174 9.1841101e-41
-0.024231864 -0.041654091 0.0056608245 9.1841101e-41
0.03336915 0.02182672 -0.018694684 9.1841101e-41
0.02308318 0.022531174 -0.021025423 1.0120262e-39
-0.024124678 -0.026772765 0.0024897885 1.0120262e-39
0.03182378 0.022684941 -0.011680318 4.5991316e-40
-0.031503715 -0.033122391 0.007060403 9.1841101e-41
-0.032126933 -0.031977378 0.0087128431 2.7587643e-40
0.036128562 0.031976543 -0.0059073982 9.2018506e-40
-0.02622997 -0.016742371 0.0077011348 2.7587643e-40
0.027846472 0.031973287 -0.0040515 9.1841101e-41
-0.030805456 -0.01884195 0.015863609 9.1841101e-41
0.014700657 0.03367129 -0.0030567888 9.1841101e-41
0.014090974 0.034791436 -0.0014402345 9.1841101e-41
0.011805283 0.034730118 0.00036287215 9.1841101e-41
0.015157299 0.03709304 -1.0232441e-05 1.4722981e-39
-0.020648651 0.013402453 0.0055239247 9.1841101e-41
0.0030220393 0.035860427 0.0037602065 9.1841101e-41
0.032829225 0.021069486 0.033215981 9.1841101e-41
-0.025068831 -0.020801933 0.043499991 9.1841101e-41
-0.022265004 -0.014556137 0.0425575 9.1841101e-41
0.0069909045 0.028226599 0.020640684 9.1841101e-41
-0.021883579 -0.0064868089 0.038884684 9.1841101e-41
-0.016517865 0.0070300652 0.030061055 9.1841101e-41
-0.033455912 -0.014099088 0.045613997 9.1841101e-41
-0.00098674512 0.03348748 0.020979917 9.1841101e-41
0.0087425876 0.031525139 0.027404115 9.1841101e-41
-0.043501299 -0.0067244144 0.043223452 9.1841101e-41
-0.02019272 0.039550789 0.014958641 4.5991316e-40
-0.040698081 -0.0031640111 0.044494513 9.1841101e-41
-0.010599019 0.045220271 0.017694417 9.1841101e-41
-0.012041792 0.049903344 0.018654477 4.5991316e-40
0.019515647 0.045071259 0.038680468 9.1841101e-41
-0.035892967 0.034625638 0.022843651 9.1841101e-41
0.016324282 0.047889765 0.037571542 9.1841101e-41
0.015477015 0.051478647 0.036952347 2.7587643e-40
-0.045223683 0.013735851 0.042223122 9.1841101e-41
-0.040422063 0.034504134 0.026416499 9.1841101e-41
0.01347718 0.060330655 0.031107599 9.1841101e-41
-0.04899276 0.022870541 0.038103957 9.1841101e-41
-0.032422416 0.054920036 0.023970148 9.1841101e-41
-0.044917267 0.021773171 0.05000411 9.1841101e-41
-0.034465112 0.052415401 0.028029799 9.1841101e-41
-0.028085813 0.059498265 0.025007492 9.1841101e-41
-0.038987365 0.015469586 0.061717901 9.1841101e-41
-0.026816923 0.059332348 0.028702829 9.1841101e-41
-0.017629802 0.064391255 0.037688829 9.1841101e-41
0.020600181 0.064796172 0.05750506 9.1841101e-41
-0.03982047 0.050284088 0.041693192 9.1841101e-41
-0.015520461 0.061429925 0.044433936 5.52113e-40
0.014852932 0.062324844 0.05972356 9.1841101e-41
0.021909019 0.064734317 0.061271988 9.1841101e-41
-0.055809256 0.011533092 0.071505673 4.5991316e-40
-0.034217797 0.054748885 0.046480611 9.1841101e-41
0.012761601 0.067418508 0.059990723 9.1841101e-41
0.02215275 0.070630722 0.06206857 9.1841101e-41
-0.0024773562 0.064204216 0.057784364 9.1841101e-41
-0.056602269 0.024218099 0.068506502 5.52113e-40
-0.044360794 0.052218497 0.05222559 1.0120262e-39
-0.037553389 0.055172097 0.056152716 4.5991316e-40
-0.047237426 0.053270459 0.055623107 4.5991316e-40
-0.01476232 0.072783716 0.055160299 5.52113e-40
-0.049634334 0.055650733 0.05506045 2.7587643e-40
