# .PCD v0.7 - Point Cloud Data file format
VERSION 0.7
FIELDS x y z rgb
SIZE 4 4 4 4
TYPE F F F F
COUNT 1 1 1 1
WIDTH 50
HEIGHT 1
VIEWPOINT 0 0 0 1 0 0 0
POINTS 50
DATA ascii
0.047912128 -0.03721834 -0.04253358 0
0.007027816 -0.058116958 -0.02562698 0
0.047909219 -0.037194252 -0.042514764 0
0.059505761 -0.0087266713 -0.02763536 0
0.0069470853 -0.059301957 -0.025929159 0
-0.021763101 -0.094346195 -0.0042665899 0
-0.012951389 -0.084500901 -0.0022159107 0
0.0068132877 -0.02788239 -0.038153887 0
0.018477261 -0.01966092 -0.041242748 0
0.0068377778 -0.058082901 -0.025511246 0
0.060457282 -0.0080907643 -0.027124332 0
-0.015444487 -0.043789208 -0.018605225 0
-0.021763101 -0.094346195 -0.0042665899 0
0.084097117 0.013505189 -0.02316406 0
0.036418557 0.0086784363 -0.032324493 0
0.084857091 0.0011443943 -0.026415333 0
0.014510155 -0.0079050446 -0.035085633 0
-0.027420331 -0.050594043 -0.010856736 0
0.049072009 0.016869167 -0.026987109 0
0.016258389 0.0060269181 -0.03507584 0
0.0094397664 0.022413593 -0.0204814 0
-0.013270393 0.006406568 -0.021520257 0
-0.022206604 -0.023344576 -0.011669874 0
-0.028667018 -0.019083798 0.0049251467 0
0.032789558 0.026321571 -0.0085466877 0
-0.028694034 -0.019062474 0.0054810494 0
-0.027343005 -0.0087481439 0.0053078756 0
-0.0087055564 0.019691467 -0.0097734109 0
-0.0058406889 0.033690955 -0.00061549246 0
-0.014594244 0.008973523 0.028425297 0
-0.021511186 0.035824321 0.01496195 0
-0.022159595 0.033437647 0.014596846 0
0.011530332 0.029598966 0.029599011 0
0.028398179 0.047894686 0.035871744 0
0.012240797 0.041502278 0.039363597 0
0.026535571 0.061730348 0.033982985 0
-0.048228666 0.0015370548 0.047253922 0
-0.046504524 0.022274002 0.03349869 0
0.0098214149 0.061831433 0.032864623 0
-0.043664962 0.045110643 0.028469771 0
-0.045829453 0.0053529963 0.062177934 0
-0.011176705 0.068089515 0.025530539 0
0.010064527 0.062056966 0.03327141 0
-0.011176713 0.068089515 0.025530491 0
0.01496844 0.060258046 0.058441713 0
-0.045778461 0.0053434372 0.062099397 0
-0.040310342 0.019932432 0.063376069 0
-0.025874637 0.062277533 0.050097659 0
-0.043996193 0.047395293 0.049763631 0
-0.025813483 0.062701419 0.050371371 0
