# .PCD v0.7 - Point Cloud Data file format
VERSION 0.7
FIELDS x y z rgb
SIZE 4 4 4 4
TYPE F F F F
COUNT 1 1 1 1
WIDTH 90
HEIGHT 1
VIEWPOINT 0 0 0 1 0 0 0
POINTS 90
DATA ascii
0.24126668 0.13860001 1.0780001 0
0.20502003 0.15810002 1.0710001 0
0.17797714 0.18104573 1.074 0
0.22557929 0.18219787 1.07175 0
-0.078317143 0.11747334 1.082 0
-0.078317143 0.11747334 1.082 0
0.18016668 0.13177906 1.0810001 0
-0.13074954 0.16781241 1.0810001 0
-0.078951113 0.17134793 1.0860001 0
0.038339049 0.44383493 1.0880001 0
-0.26911336 -0.023898097 1.0910001 0
-0.23500772 0.065799989 1.0966955 0
0.24209811 0.098709524 1.0910001 0
0.22572073 0.11390501 1.09725 0
-0.64938861 0.15581143 1.098 0
-0.21520768 -0.054844964 1.106263 0
-0.22509648 0.02524375 1.1044374 0
0.16664106 0.092941172 1.1020001 0
0.25760189 0.1797943 1.104 0
0.45234478 0.21830094 1.102 0
0.29016003 0.028697144 1.1160001 0
0.14946 0.053000003 1.113 0
-0.19652523 -0.11108048 1.1215 0
-0.20313902 -0.066719301 1.1238 0
-0.17796254 -0.052528571 1.1256667 0
-0.21497428 0.10160477 1.123 0
-0.23589429 -0.061397146 1.131 0
-0.21535446 -0.023605876 1.1325002 0
-0.19183429 0.029262858 1.138 0
-0.26691377 0.034060083 1.1354166 0
0.41943428 0.30021524 1.138 0
-0.6917423 -0.045019049 1.1448572 0
-0.17372993 -0.028117716 1.1444 0
-0.18868533 0.0054518101 1.1452 0
-0.2955676 0.060858287 1.1452 0
-0.32528573 0.040523812 1.1500001 0
-0.23474607 0.11689842 1.1499999 0
0.3684786 0.28074524 1.1515 0
-0.16143334 0.0077933338 1.169 0
-0.27538261 0.11580631 1.1620911 0
-0.6658172 -0.039100002 1.1730001 0
-0.1977343 0.13405716 1.1730001 0
-0.67603141 -0.069075234 1.189 0
-0.26070002 -0.016928572 1.1850001 0
0.019315239 0.31358856 1.1930001 0
0.070897147 0.11069906 1.3060001 0
0.045029528 0.15136525 1.3135002 0
0.10287619 0.092795558 1.3226668 0
0.024084764 0.069719046 1.3310001 0
0.075070478 0.067436196 1.3360001 0
0.0089066671 0.11451429 1.3360001 0
-0.42257205 0.24738282 0.70324004 0
0.069266677 0.33861503 1.039 0
0.069998339 0.44423535 1.0549169 0
0.12098873 0.39013338 1.0780001 0
-0.27076721 -0.023061208 1.0906668 0
0.17638139 0.073354453 1.0912452 0
0.26161158 0.068916038 1.0936668 0
-0.61592573 0.18090858 1.098 0
-0.61592573 0.18090858 1.098 0
0.24923572 0.180785 1.09725 0
0.031984109 0.38986334 1.0922977 0
0.20850681 -0.0070842449 1.1078987 0
0.43896002 0.27740571 1.1160001 0
0.088172764 0.32974213 1.1098711 0
0.17050196 0.33131468 1.1078635 0
-0.23256974 0.0065641431 1.1262167 0
-0.24149545 0.076908 1.131 0
0.23786665 0.112 1.12 0
0.15070476 0.1728 1.12 0
0.12818177 0.033868775 1.1445001 0
0.37413993 0.28551826 1.1530499 0
-0.014324762 0.31845048 1.1570001 0
0.089901485 0.32285604 1.1480179 0
0.27046227 0.33001128 1.1704191 0
0.23993999 0.37925997 1.161 0
-0.25307146 -0.021370478 1.1810001 0
0.031332042 0.31470573 1.2065715 0
0.050983559 0.14810558 1.3117253 0
0.34205317 0.31193012 1.3070002 0
0.077542543 0.06911397 1.3276668 0
0.10096952 0.12780952 1.342 0
0.049795024 0.064547546 1.3718855 0
-0.24509582 -0.097119868 1.1120524 0
-0.62596154 0.18012416 1.0948751 0
0.0068250527 0.42368308 1.1331453 0
-0.22256795 0.16082683 1.1686668 0
0.099799179 0.31868154 1.1949445 0
0.3649143 0.31900573 1.2360001 0
0.14255962 0.31077114 1.2467381 0
