# .PCD v0.7 - Point Cloud Data file format
VERSION 0.7
FIELDS x y z rgb
SIZE 4 4 4 4
TYPE F F F F
COUNT 1 1 1 1
WIDTH 559
HEIGHT 1
VIEWPOINT 0 0 0 1 0 0 0
POINTS 559
DATA ascii
-0.20895875 -0.099872231 1.1058785 0
-0.24792767 -0.10205793 1.1129637 0
-0.23459554 -0.088658094 1.1048416 0
-0.25047851 -0.081867695 1.1150993 0
-0.19176316 -0.07717073 1.1285856 0
-0.68888283 -0.06923759 1.1417185 0
-0.23848003 -0.066005528 1.1035743 0
-0.21100521 -0.061316609 1.1082075 0
-0.67016119 -0.065971956 1.1413339 0
-0.66431451 -0.060842752 1.167511 0
-0.22835183 -0.060213327 1.1109688 0
-0.18402576 -0.045431986 1.1233907 0
-0.66881609 -0.032809258 1.1723578 0
-0.21019888 -0.035104364 1.1022114 0
-0.22859156 -0.031185627 1.1045613 0
-0.2162323 -0.029898643 1.12924 0
-0.18340015 -0.04496783 1.123796 0
-0.67556047 -0.025911331 1.1523809 0
-0.6756897 -0.026010156 1.1517067 0
-0.16381645 -0.016410708 1.1762271 0
-0.19527245 -0.021796227 1.1104922 0
-0.2697258 -0.01722908 1.0878429 0
-0.19458485 -0.011417389 1.1486225 0
-0.26249313 -0.010408465 1.0692704 0
-0.21934107 -0.0072914436 1.1672319 0
-0.16317463 -0.016809762 1.1766529 0
-0.31154919 -0.0083065033 1.1384248 0
2 -0.5 6 0
-0.24428535 -0.0081233531 1.1627998 0
-0.31257534 -0.0083847046 1.1386361 0
-0.26560712 0.0061047673 1.0650606 0
-0.16465831 0.0021901424 1.1729167 0
-0.32119083 0.0092515945 1.1593075 0
-0.22079849 0.0078718662 1.1087866 0
-0.20274067 0.011703491 1.0957243 0
-0.19216084 0.0068885088 1.1407664 0
-0.28954124 0.0090446472 1.1395068 0
-0.19801021 0.016200781 1.1657157 0
0.20151901 0.0096979737 1.1215832 0
-0.19104171 0.01934731 1.1807915 0
0.19121146 0.015669942 1.1320791 0
0.22522306 0.016283751 1.1166922 0
-0.23370361 0.025389194 1.0772991 0
-0.21774101 0.016819954 1.1035662 0
0.17806101 0.029907703 1.1199505 0
-0.16780806 0.028785825 1.1748881 0
0.21165085 0.035593286 1.0921736 0
0.14529228 0.040296406 1.1401832 0
0.19724941 0.037016869 1.0932467 0
-0.27131128 0.033235431 1.1380403 0
-0.22520924 0.038815498 1.1048857 0
-0.19419432 0.037238598 1.087491 0
-0.1812973 0.036781788 1.1624522 0
-0.25127453 0.039615721 1.1053355 0
0.25108123 0.040233791 1.1147887 0
-0.27881145 0.049758196 1.1579286 0
-0.30622959 0.043957949 1.1323572 0
-0.18157959 0.046513081 1.1238614 0
0.071628571 0.061106682 1.3679044 0
0.21460938 0.04792197 1.0868489 0
0.28252161 0.048354924 1.1157869 0
-0.28904963 0.051269293 1.1345013 0
0.051203389 0.065167531 1.3792526 0
0.1675806 0.052159071 1.1033344 0
0.18403816 0.051482201 1.0904799 0
0.030843258 0.06932576 1.3635442 0
0.15256739 0.053156853 1.1074367 0
-0.17057514 0.056077957 1.1338644 0
0.22435427 0.054486275 1.0793982 0
0.2561053 0.057284079 1.093833 0
-0.28816652 0.064921319 1.1557648 0
-0.19634295 0.060137868 1.1079596 0
0.034426689 0.083994031 1.3067522 0
0.083554268 0.074997753 1.3175287 0
0.19520187 0.056448996 1.0860171 0
0.034030914 0.083160646 1.3068762 0
-0.23768616 0.067964979 1.0963211 0
0.034216881 0.083249629 1.3067298 0
0.24182129 0.053153992 1.0890427 0
-0.26489723 0.075797945 1.1613892 0
-0.20505619 0.071256757 1.1149727 0
-0.23163414 0.094150007 1.1220598 0
0.19868946 0.074990779 1.0725505 0
0.097913742 0.096140862 1.3213849 0
0.22657967 0.077531815 1.0745656 0
0.083795547 0.10996628 1.32304 0
0.24661446 0.08217907 1.0911472 0
-0.24365234 0.09140873 1.1338367 0
0.041801453 0.10232908 1.3119519 0
-0.20962238 0.089199424 1.1124314 0
0.17029762 0.085750997 1.0957642 0
0.066795707 0.10697007 1.304793 0
-0.23142815 0.09379375 1.1216803 0
0.0091080666 0.11377716 1.3369925 0
0.0091080666 0.11377716 1.3369925 0
-0.24297905 0.092057705 1.1333208 0
-0.21005583 0.10535377 1.1636648 0
0.03033638 0.12380797 1.3106139 0
0.093693733 0.1191631 1.3323436 0
0.1878624 0.095323086 1.086236 0
0.046215057 0.11766553 1.3076289 0
0.24715567 0.082109451 1.0912567 0
-0.21766329 0.11090863 1.1518953 0
0.030253887 0.12393594 1.3107138 0
-0.26958084 0.10759354 1.1547394 0
0.078438759 0.12251592 1.3189683 0
0.061702728 0.12294769 1.3109746 0
0.21907902 0.10305411 1.0723823 0
0.18360424 0.11400855 1.1079044 0
-0.19135308 0.12975633 1.176641 0
0.018846512 0.14265633 1.3357544 0
0.19493008 0.11570844 1.1007729 0
0.2041328 0.11973345 1.0738879 0
0.206774 0.12235118 1.0723768 0
0.22847319 0.11953974 1.1026835 0
0.10046387 0.14029965 1.3309627 0
-0.21574736 0.12724155 1.1538242 0
-0.26321173 0.13136673 1.1548731 0
0.048333406 0.14637953 1.3113124 0
0.25175691 0.12992039 1.1030647 0
-0.66683483 0.13244724 1.1137772 0
-0.12236691 0.12400484 1.0674658 0
0.23418999 0.13455641 1.1006551 0
0.17103195 0.13819957 1.087677 0
-0.085259199 0.13450831 1.0558686 0
0.17587471 0.136244 1.0800972 0
-0.21235561 0.15052223 1.1714069 0
-0.65615845 0.14864397 1.1099007 0
-0.26611423 0.15853807 1.1716938 0
-0.11194682 0.14395753 1.0665822 0
0.16429996 0.14940755 1.1080017 0
0.23135281 0.14326382 1.0640738 0
0.24492359 0.14109731 1.0834956 0
0.19208765 0.1456137 1.0641408 0
0.17710924 0.15651226 1.1025999 0
-0.09804678 0.14854729 1.0769653 0
0.2119472 0.14612037 1.0618834 0
0.15314293 0.16331005 1.1129684 0
0.19142592 0.16159576 1.0754615 0
0.2139709 0.16422211 1.0755332 0
-0.45237684 0.16590929 1.0415697 0
-0.081781387 0.16727257 1.0786638 0
0.24429512 0.16934538 1.0938029 0
-4.484375 -5.625 -0.8125 0
-0.62525749 0.17842913 1.0957661 0
-0.62525749 0.17842913 1.0957661 0
-0.62525749 0.17842913 1.0957661 0
-0.62525749 0.17842913 1.0957661 0
0.24414921 0.16956973 1.0936613 0
0.18221617 0.17589593 1.0702376 0
0.22452116 0.17615849 1.0659481 0
-0.57445097 0.16797209 1.0104065 0
-0.53457022 0.17278312 0.98553854 0
0.44804382 0.21336746 1.0981102 0
0.42043686 0.21587372 1.0861931 0
0.40225601 0.21826935 1.076395 0
0.37909698 0.21845961 1.0689597 0
0.33125114 0.21207619 1.0470734 0
0.3029213 0.21875143 1.035676 0
0.40843219 0.24208179 1.1525087 0
0.38935232 0.24487352 1.144347 0
0.1885128 0.21406555 0.98011589 0
0.31860352 0.21604919 1.041748 0
0.2727375 0.22811604 1.0223484 0
0.22335815 0.21842515 0.99768066 0
0.40243721 0.26555437 1.1422002 0
0.42591262 0.26604033 1.1444739 0
0.32956171 0.30606842 1.3280745 0
0.17880821 0.21863085 0.97820997 0
0.21041489 0.21720123 0.99060059 0
0.28029156 0.30653083 1.3013654 0
0.30515385 0.2928772 1.3316402 0
0.10424995 0.22428995 0.94432068 0
0.15464783 0.22454071 0.96669388 0
0.14187622 0.21858215 0.95767021 0
0.21157074 0.3027792 1.2881894 0
0.26847076 0.30580044 1.3040819 0
0.41982269 0.27704859 1.1327734 0
0.14089584 0.2223587 0.95754051 0
0.30122447 0.31148177 1.3060549 0
0.31987381 0.31493017 1.2873838 0
0.2420063 0.3135581 1.2823191 0
0.37673378 0.2728653 1.15802 0
0.28360128 0.31543821 1.2743729 0
0.43497944 0.27320051 1.128953 0
0.16195297 0.31177115 1.2594862 0
0.18891764 0.31304812 1.25832 0
0.22263241 0.3144269 1.2775459 0
0.32239878 0.31458393 1.2666967 0
0.16195297 0.31177115 1.2594862 0
0.31392097 0.31697986 1.2784498 0
0.34959179 0.31789356 1.2781925 0
0.1027832 0.22566628 0.94365883 0
0.13806415 0.31191367 1.2398492 0
0.31028295 0.31483263 1.2481797 0
0.045589447 0.22646427 0.91578484 0
0.059593201 0.23031998 0.91820621 0
0.099185944 0.31211963 1.2347045 0
0.12770556 0.31143707 1.2284871 0
0.28403687 0.31406718 1.2456574 0
0.099185944 0.31211963 1.2347045 0
0.19265366 0.31386545 1.2360528 0
0.25908256 0.31811878 1.2380421 0
0.30183792 0.31885457 1.2345901 0
0.040142059 0.22255802 0.91176605 0
0.086612701 0.31640679 1.2121191 0
0.11272907 0.31595808 1.2242886 0
0.17912735 0.3168464 1.230073 0
0.24082232 0.31697237 1.2324603 0
0.20339584 0.31743228 1.2248247 0
0.12461853 0.32258105 1.1824381 0
0.21753848 0.3195911 1.2282927 0
0.26185226 0.31763101 1.2166462 0
0.30931377 0.32223171 1.2241852 0
-0.010792255 0.31431419 1.1885515 0
0.029636383 0.31764519 1.1938272 0
0.054249763 0.31552017 1.1983504 0
0.17771125 0.31614438 1.200394 0
0.18883398 0.31990016 1.2156851 0
0.35598373 0.32799351 1.2261658 0
0.3694973 0.32315898 1.2346067 0
0.40706348 0.30095577 1.1489115 0
-0.070983887 0.22967529 0.85941696 0
-0.029251099 0.21109772 0.87631035 0
0.18999386 0.32312196 1.1778785 0
0.16592801 0.32015517 1.1938015 0
0.18499565 0.32013527 1.1914152 0
0.094442368 0.32061434 1.1877735 0
0.23812914 0.3237378 1.1948471 0
0.33829689 0.3249507 1.2123566 0
-0.093338013 0.22562885 0.84962082 0
-0.018163681 0.31809843 1.1613665 0
0.073556423 0.32277912 1.1764348 0
0.094695091 0.32062885 1.1878114 0
0.16592801 0.32015517 1.1938015 0
0.21924019 0.32138675 1.1700016 0
0.31706238 0.32754189 1.1968212 0
0.43653107 0.31075525 1.1283875 0
-0.11300659 0.23195744 0.83990479 0
0.16154909 0.32311913 1.1574645 0
0.31869888 0.32783699 1.1977654 0
0.39704514 0.31602097 1.1583042 0
0.07877779 0.32119215 1.1486816 0
-0.091732025 0.3586235 1.2659531 0
-0.070871353 0.34441757 1.2361774 0
-0.069036484 0.34294415 1.2342644 0
0.099629402 0.32186323 1.1544752 0
0.11404192 0.32314706 1.1643021 0
0.0346241 0.32122982 1.1397686 0
0.06288147 0.32137692 1.1628959 0
0.16248894 0.32324469 1.1572421 0
0.18458915 0.32584262 1.1669738 0
0.20572472 0.33130449 1.1306696 0
0.27111435 0.32913399 1.1672001 0
-0.15921211 0.38776875 1.3702774 0
-0.14356995 0.39825439 1.3465271 0
-0.11328506 0.36860847 1.3020401 0
-0.10537338 0.36512947 1.288887 0
-0.062110901 0.33857727 1.2232742 0
-0.037559509 0.33087492 1.1781235 0
-0.0073223114 0.3273983 1.1434994 0
-0.12434387 0.41403961 1.3211594 0
0.12147808 0.32467556 1.1363344 0
0.16585922 0.32428944 1.135787 0
-0.18360138 0.23182392 0.80622482 0
-0.13655472 0.38418198 1.33675 0
-0.1218853 0.37686539 1.3107586 0
-0.046224594 0.34419274 1.2007084 0
0.25403118 0.3300418 1.1606073 0
-0.18039131 0.40820026 1.398386 0
0.060090065 0.32450581 1.1313148 0
0.15604782 0.32653528 1.1289949 0
-0.2064743 0.23180771 0.79481125 0
-0.22241211 0.42688274 1.4639511 0
-0.20566416 0.42383122 1.4424138 0
-0.00037765503 0.32741165 1.1338882 0
0.1451562 0.32684097 1.1235417 0
0.41255188 0.32793176 1.1486359 0
-0.19678545 0.41711366 1.4248848 0
0.064502239 0.32548317 1.1112902 0
-0.1685524 0.23817444 0.81617165 0
-0.028167725 0.3455677 1.1733284 0
0.01407814 0.32744646 1.1092129 0
0.11352825 0.32987034 1.1159456 0
0.22166443 0.33446217 1.1343389 0
0.30901337 0.35670757 1.2050858 0
0.084543228 0.33021021 1.1031055 0
0.19661522 0.33374572 1.1177597 0
-0.033590317 0.35896301 1.1791821 0
0.1282374 0.33131564 1.1145697 0
0.17467499 0.33396912 1.1039896 0
0.20835495 0.33216214 1.1314397 0
0.27181244 0.35246277 1.1787415 0
0.29724884 0.35529995 1.1940193 0
-0.17993546 0.40617752 1.3975029 0
-0.10581207 0.38494301 1.2884369 0
0.065229416 0.32904187 1.0993416 0
-0.2961731 0.23728943 0.75217628 0
-0.23654747 0.23395526 0.78198624 0
-0.11214447 0.38862228 1.294302 0
-0.045740128 0.36365128 1.2059498 0
0.33502197 0.3680687 1.2256298 0
-0.27216911 0.22984505 0.76021147 0
-0.22030258 0.44717073 1.4649391 0
0.021133423 0.33316517 1.0976295 0
0.034543991 0.33111072 1.0812492 0
0.2390976 0.3525641 1.1587925 0
-0.056739807 0.37717819 1.2216682 0
-0.20584869 0.44289207 1.4409218 0
-0.060934067 0.3812252 1.2300968 0
-0.026536942 0.35873222 1.1669731 0
0.16293335 0.33472049 1.100008 0
-0.16486931 0.42586327 1.3851204 0
-0.17587662 0.40015936 1.3940811 0
-0.098838806 0.4268837 1.2864838 0
0.3733902 0.38182974 1.2416029 0
-0.34718323 0.22032166 0.72772217 0
-0.1065712 0.38606644 1.2890968 0
0.04391861 0.3321135 1.073616 0
-0.10026169 0.43175316 1.287117 0
0.22490883 0.36435246 1.1466885 0
0.42732525 0.36308694 1.1496081 0
-0.2241745 0.47854233 1.4689941 0
-0.22514343 0.48013306 1.4702911 0
-0.13551331 0.41965771 1.3328609 0
0.0025749207 0.33760834 1.1221886 0
0.13666916 0.33800447 1.0792179 0
0.29924774 0.37740898 1.1977596 0
-0.14979553 0.44022179 1.3633118 0
-0.12575531 0.41597366 1.322773 0
-0.071708679 0.39414597 1.2434845 0
-0.044631958 0.37783241 1.2012405 0
0.30730438 0.38441849 1.2059593 0
-0.39022064 0.22552752 0.71168804 0
-0.071609497 0.39392567 1.2433014 0
-0.058357239 0.41982269 1.2305489 0
0.34278107 0.39171997 1.2283173 0
-0.20174026 0.46766186 1.4415855 0
-0.17666626 0.45209503 1.4044952 0
-0.016020775 0.36804199 1.1606903 0
0.10328674 0.33802652 1.0616026 0
0.2846756 0.38758469 1.1927338 0
0.33990479 0.3921724 1.2266273 0
-0.10044479 0.43229866 1.2873325 0
0.19081974 0.36505699 1.1299515 0
-0.3257103 0.26956367 0.74435043 0
-0.30409241 0.24223709 0.74967957 0
0.091371536 0.33993065 1.0488253 0
-0.20169449 0.46767539 1.4415321 0
-0.13536835 0.4410305 1.3438988 0
0.068797201 0.33963501 1.0375613 0
0.2846756 0.38758469 1.1927338 0
-0.42015839 0.23998165 0.70210934 0
-0.15425491 0.48239231 1.3719521 0
-0.14775848 0.44718838 1.3562241 0
-0.044624329 0.37783432 1.2012329 0
-0.029941559 0.39524031 1.1832237 0
0.011749268 0.37178802 1.1200867 0
0.14590836 0.35500526 1.0917206 0
0.19605255 0.38523293 1.1311646 0
0.21072578 0.37803507 1.1432838 0
-0.3835907 0.24424553 0.71802807 0
0.22964478 0.37953186 1.1529903 0
-0.35061646 0.23921394 0.72716331 0
-0.051700592 0.40447235 1.2202377 0
0.0054702759 0.37532043 1.1311493 0
0.27418327 0.38969564 1.1825628 0
0.33824158 0.40568256 1.2310143 0
0.42650509 0.37693059 1.1458868 0
-0.030097961 0.39557648 1.1835175 0
0.32875061 0.40930998 1.2241306 0
-0.21157837 0.48565423 1.4474354 0
-0.10864639 0.43304253 1.2948303 0
0.0053367615 0.37520218 1.1313019 0
0.26672363 0.41002941 1.1845322 0
0.031757355 0.37042189 1.0958815 0
0.13049507 0.36667347 1.0874023 0
0.17100143 0.37673664 1.1139936 0
0.2954464 0.40754789 1.2063789 0
-0.2247963 0.50465775 1.4724045 0
-0.10050774 0.43348885 1.2872429 0
0.03882122 0.36817396 1.0794234 0
0.051057816 0.36474609 1.070694 0
0.31789398 0.41370392 1.2124958 0
0.37018204 0.42407751 1.2529335 0
-0.058494568 0.41997147 1.2308121 0
0.14592171 0.37240982 1.0927124 0
-0.13368225 0.46161079 1.3442192 0
-0.095241547 0.43753815 1.2752781 0
-0.11850929 0.45576096 1.3145485 0
-0.064506531 0.42962265 1.2381477 0
-0.025533676 0.40569448 1.1745548 0
0.18700409 0.38755226 1.1234322 0
0.20296288 0.39219475 1.1346169 0
0.26695251 0.41067171 1.1846161 0
-0.14838791 0.47146606 1.364357 0
-0.14848709 0.47212601 1.3647919 0
0.24583435 0.41223907 1.1732025 0
0.25417328 0.40930176 1.1766396 0
-0.046699524 0.42791271 1.2137146 0
-0.034114838 0.41321754 1.1836338 0
0.0083503723 0.38803482 1.1251945 0
0.29598141 0.40779954 1.2066326 0
-0.18949318 0.50099087 1.4216537 0
-0.41190338 0.25174332 0.70486069 0
-0.13432312 0.47775173 1.3455467 0
0.037959099 0.38136387 1.0763645 0
0.051660061 0.37550825 1.0685539 0
0.16023254 0.39469171 1.1138391 0
0.32865143 0.43185425 1.2286644 0
0.3505249 0.42942393 1.2406311 0
-0.15999985 0.49025822 1.3838272 0
-0.11943054 0.46551323 1.3155327 0
-0.075710297 0.45068359 1.2593307 0
0.21645355 0.40895081 1.152359 0
0.12448502 0.38588274 1.0796556 0
0.33357239 0.45180893 1.2334976 0
0.42159915 0.40985632 1.1523919 0
-0.20308304 0.5206151 1.447403 0
-0.089294434 0.46236134 1.2735386 0
0.10136986 0.38408661 1.0707531 0
-0.25976562 0.47460938 1.5629883 0
-0.21556664 0.53302622 1.4672647 0
0.18452454 0.41016638 1.1306162 0
0.2025547 0.41020522 1.1397839 0
-0.17795181 0.51864624 1.4012222 0
-0.13347626 0.49446106 1.3424149 0
0.054231644 0.3888998 1.0700216 0
0.24172211 0.42563343 1.1678925 0
0.29846001 0.44169092 1.2088633 0
-0.19810867 0.53491592 1.4403763 0
-0.20355034 0.52122879 1.4482079 0
-0.16225433 0.50642157 1.3845711 0
-0.082626343 0.46419448 1.2626762 0
0.0008058548 0.41819763 1.1357918 0
0.35095215 0.4304142 1.2409973 0
-0.17795181 0.51864624 1.4012222 0
-0.15326309 0.50734711 1.368187 0
-0.10215378 0.47506666 1.3027678 0
0.01880455 0.40775681 1.1082344 0
0.22070312 0.42436981 1.1524124 0
0.2191925 0.42432985 1.1514664 0
0.31631851 0.4554038 1.2262135 0
0.34653473 0.4613533 1.2470636 0
-0.11489487 0.48846245 1.3163624 0
-0.083171844 0.46485353 1.2633324 0
-0.040906906 0.44672489 1.1985874 0
0.33506012 0.45112228 1.2345524 0
-0.092437744 0.47343636 1.2875977 0
0.14477539 0.41248369 1.1028671 0
0.20820999 0.42871475 1.1453762 0
-0.15532684 0.4800415 1.3729401 0
0.10295105 0.41406298 1.0734882 0
0.17481613 0.4172554 1.115478 0
0.19822121 0.42554998 1.1353621 0
0.24331665 0.43896294 1.1735249 0
0.27022552 0.44638443 1.1903534 0
0.28924561 0.44634438 1.2021637 0
-0.12818527 0.50477028 1.3419037 0
-0.0055084229 0.43083191 1.149353 0
0.069956258 0.39626333 1.0478147 0
0.35525322 0.47245502 1.2503271 0
-0.13769531 0.50887299 1.3516541 0
-0.11278534 0.49772644 1.3125458 0
-0.083589554 0.48268604 1.2712173 0
-0.026527405 0.45254707 1.1800919 0
0.011829376 0.42811489 1.1312227 0
-0.1439476 0.5159626 1.362854 0
0.050818443 0.40600121 1.0712423 0
0.15756989 0.40799522 1.1083603 0
0.22466278 0.44480515 1.1602116 0
0.41929626 0.44125938 1.1569848 0
0.41929626 0.44125938 1.1569848 0
-0.20903015 0.57386684 1.4601612 0
0.34952545 0.5032568 1.2497177 0
-0.11828613 0.51140422 1.3249359 0
-0.10046768 0.49607849 1.2913799 0
-0.075561523 0.48755169 1.263813 0
-0.039138794 0.4629488 1.2017326 0
-0.0061759949 0.44637871 1.1485558 0
0.26002502 0.4585762 1.1823349 0
-0.17802048 0.55795825 1.4116364 0
-0.14343262 0.49717712 1.362915 0
-0.093666077 0.49490452 1.2857761 0
-0.063363075 0.48394871 1.2466145 0
0.11939621 0.42169952 1.0864334 0
0.28266907 0.4646244 1.1990681 0
0.29217529 0.46923447 1.2075882 0
0.084093094 0.41578341 1.0656977 0
-0.20139313 0.56771088 1.4462128 0
0.019758224 0.43181324 1.1097298 0
0.14857101 0.42944908 1.1028252 0
0.36727905 0.48910332 1.2572899 0
-0.20820236 0.57229424 1.4591026 0
0.064806998 0.41554403 1.0519549 0
0.31026077 0.48161745 1.2249241 0
-0.20989609 0.57230854 1.4611912 0
-0.16299057 0.55980682 1.3920021 0
-0.028331757 0.4694171 1.1892014 0
0.055315971 0.4244051 1.0748487 0
0.3494339 0.50491238 1.2495842 0
-0.040693283 0.47759438 1.2016182 0
-0.013364792 0.46378899 1.1674881 0
0.21593857 0.45614052 1.1520424 0
0.2466507 0.46664619 1.179821 0
0.28019714 0.47851562 1.2024994 0
-0.18527603 0.5527668 1.4242935 0
0.19416046 0.45521355 1.1415043 0
0.33172226 0.4948101 1.2349968 0
0.10414505 0.42776489 1.0721302 0
-0.21294022 0.61862183 1.468792 0
-0.045850754 0.4949975 1.2187004 0
0.0032501221 0.4588871 1.1365013 0
0.12801933 0.4393692 1.0905323 0
-0.18631172 0.58201027 1.4301796 0
-0.17835236 0.56231117 1.4130287 0
-0.095912933 0.52363515 1.2896156 0
-0.22333074 0.60903108 1.485882 0
-0.13114357 0.54923058 1.3457413 0
0.012750626 0.4589057 1.1273708 0
0.071560025 0.42873418 1.05083 0
0.2717514 0.48321629 1.1955414 0
-0.19727707 0.59522539 1.4497643 0
-0.12724113 0.54711437 1.3348007 0
-0.0938797 0.52544022 1.2876053 0
0.15141296 0.45668173 1.1127357 0
0.21859741 0.47813416 1.1611023 0
0.31410217 0.50561523 1.2267265 0
0.37085915 0.49995232 1.265193 0
0.3412056 0.51503038 1.2481365 0
-0.13868237 0.56486762 1.3637619 0
-0.099205017 0.53615892 1.2964249 0
-0.0044136047 0.46792793 1.1497898 0
0.051151276 0.44211936 1.0765362 0
-0.18906403 0.58432388 1.433876 0
-0.10909653 0.54555893 1.3113556 0
-0.089612961 0.53714609 1.2873726 0
-0.061965942 0.51667976 1.243679 0
0.16448212 0.46534443 1.1210938 0
0.27146912 0.48049927 1.1949844 0
-0.21483612 0.60694122 1.4708786 0
-0.16262054 0.57894897 1.3896332 0
-0.15574646 0.57823753 1.3787231 0
0.11359024 0.45497894 1.0860176 0
0.17295933 0.47514534 1.131041 0
0.20781803 0.50533748 1.1563015 0
0.30448151 0.50504303 1.2186165 0
-0.029070854 0.4988308 1.1854553 0
0.00431633 0.48101044 1.1440735 0
0.089427948 0.44134808 1.0647697 0
0.26538849 0.487854 1.1931381 0
0.28427124 0.503479 1.2066879 0
-0.21688461 0.60715532 1.4728966 0
-0.046149254 0.49536705 1.2190495 0
0.12289429 0.45059395 1.0890713 0
0.1857996 0.47554207 1.1341605 0
0.21827316 0.48847961 1.1623459 0
0.03890419 0.4589386 1.0883598 0
0.066924244 0.44358695 1.051468 0
