# .PCD v0.7 - Point Cloud Data file format
VERSION 0.7
FIELDS x y z rgb
SIZE 4 4 4 4
TYPE F F F F
COUNT 1 1 1 1
WIDTH 1059
HEIGHT 1
VIEWPOINT 0 0 0 1 0 0 0
POINTS 1059
DATA ascii
-0.20942381 -0.10208096 1.105 0
-0.24186763 -0.1003381 1.1090001 0
-0.22366001 -0.094340004 1.113 0
-0.23889048 -0.091557145 1.105 0
-0.19328287 -0.087663814 1.1090001 0
-0.24274001 -0.08162 1.113 0
-0.2067 -0.08162 1.113 0
-0.21152858 -0.076823808 1.105 0
-0.20071335 -0.078353338 1.1270001 0
-0.2298457 -0.074516185 1.102 0
-0.1935838 -0.073797144 1.123 0
-0.20855714 -0.071658097 1.123 0
-0.21152858 -0.064195238 1.105 0
-0.22790001 -0.062540002 1.113 0
-0.20521429 -0.055776194 1.105 0
-0.18998002 -0.054740004 1.1270001 0
-0.67106104 -0.053293336 1.1420001 0
-0.66904289 -0.054366671 1.1650001 0
-0.23047143 -0.049461905 1.105 0
-0.19186001 -0.049819998 1.113 0
-0.66444856 -0.049585715 1.1570001 0
-0.17647143 -0.048128571 1.123 0
-0.66020668 -0.043419998 1.169 0
-0.22708096 -0.041191433 1.1090001 0
-0.17988287 -0.042008571 1.131 0
-0.66654378 -0.040629521 1.153 0
-0.67541146 -0.035891429 1.1420001 0
-0.67752475 -0.036237143 1.153 0
-0.20100477 -0.034728572 1.105 0
-0.17861047 -0.035294287 1.123 0
-0.17172001 -0.035640001 1.1340001 0
-0.18174858 -0.030822858 1.1160001 0
-0.2249686 -0.028517146 1.1090001 0
-0.2298457 -0.026238095 1.102 0
-0.21866 -0.026928572 1.131 0
-0.19750762 -0.02218 1.1090001 0
-0.27119142 -0.01766381 1.0910001 0
-0.17986001 -0.016757144 1.1730001 0
-0.2057343 -0.014002858 1.131 0
-0.1670219 -0.012330476 1.177 0
-0.19754858 -0.0098228576 1.146 0
-0.24298574 -0.0077666673 1.1650001 0
-0.17197619 -0.0077666673 1.1650001 0
0.20521429 -0.0073666666 1.105 0
-0.23268667 -0.0055666668 1.169 0
-0.18118571 -0.0032942859 1.153 0
-0.26622003 -0.0010200001 1.0710001 0
-0.3045505 0.0010838095 1.138 0
-0.18881716 0.0010914286 1.146 0
-0.32833049 0.0054904758 1.153 0
-0.25565049 0.0050523812 1.0610001 0
-0.29796001 0.0076400004 1.146 0
-0.24990001 0.0071400008 1.0710001 0
-0.23589429 0.0075400001 1.131 0
-0.1670219 0.0078466665 1.177 0
-0.16143334 0.0077933338 1.169 0
-0.32176286 0.0099514285 1.161 0
-0.19385716 0.0098571433 1.1500001 0
-0.21152858 0.011576191 1.105 0
-0.20752856 0.013557144 1.095 0
0.21653333 0.013866667 1.12 0
0.24764572 0.015942859 1.1160001 0
-0.2298457 0.017841903 1.102 0
-0.19392475 0.021298096 1.177 0
-0.32833049 0.02306 1.153 0
-0.30238286 0.02276 1.138 0
-0.17433812 0.023620002 1.1810001 0
0.21784286 0.0221 1.105 0
0.25242954 0.02218 1.1090001 0
-0.21170001 0.023985716 1.095 0
0.17861047 0.024599047 1.123 0
0.23999999 0.024533333 1.12 0
-0.27420381 0.027095238 1.138 0
-0.23627999 0.025571428 1.074 0
0.20100477 0.026309524 1.105 0
-0.17034 0.030060001 1.169 0
-0.20127143 0.030242858 1.095 0
-0.17863335 0.032176193 1.1650001 0
0.17066 0.031126669 1.1270001 0
-0.31871429 0.033952381 1.1500001 0
-0.23341811 0.032741904 1.1090001 0
0.21300477 0.034288574 1.0910001 0
-0.24820478 0.03696667 1.1090001 0
0.18206191 0.036833331 1.105 0
-0.27972001 0.039960004 1.1340001 0
0.13114095 0.040100951 1.138 0
0.19430192 0.038444765 1.0910001 0
-0.22415714 0.041042857 1.105 0
0.14682858 0.042417143 1.1420001 0
0.17324571 0.041451432 1.1160001 0
-0.2082743 0.04248381 1.0880001 0
-0.18071429 0.044904765 1.1500001 0
0.13424572 0.044748571 1.146 0
0.24910001 0.043460004 1.113 0
0.28053331 0.043733336 1.12 0
-0.30698574 0.046317145 1.131 0
-0.18074952 0.045989525 1.123 0
-0.25293523 0.047228571 1.102 0
-0.28836 0.050760005 1.1340001 0
-0.22212857 0.049014285 1.095 0
0.037782859 0.061234292 1.368 0
0.051034287 0.061502859 1.3740001 0
0.17463429 0.049148574 1.098 0
-0.27753431 0.05418 1.161 0
-0.19093333 0.052266669 1.12 0
0.071657151 0.063839994 1.368 0
-0.18174858 0.054205719 1.1160001 0
-0.1743324 0.054545715 1.123 0
0.02736 0.066445716 1.368 0
0.089662857 0.064405717 1.3260001 0
0.18547811 0.052845716 1.0880001 0
0.20412953 0.052845716 1.0880001 0
0.24350476 0.052845716 1.0880001 0
-0.30996001 0.057240006 1.1340001 0
-0.28821906 0.057643812 1.1420001 0
-0.23678571 0.055776194 1.105 0
-0.20412953 0.054918095 1.0880001 0
0.22484002 0.054413334 1.0780001 0
0.25829145 0.055422861 1.098 0
-0.29909524 0.061994288 1.1420001 0
-0.23047143 0.061528575 1.095 0
-0.18694572 0.062315244 1.1090001 0
0.088986672 0.07394667 1.3160001 0
0.14465335 0.064169526 1.1420001 0
0.15680477 0.062090475 1.105 0
-0.2734257 0.066983812 1.153 0
0.19609334 0.062626667 1.0780001 0
0.21786857 0.062394284 1.074 0
-0.29319143 0.069179997 1.153 0
0.073384769 0.078360006 1.3060001 0
0.16006 0.066780001 1.113 0
0.17352095 0.065460004 1.0910001 0
0.19169524 0.065280005 1.0880001 0
0.021306667 0.081466675 1.3160001 0
0.033582862 0.080847628 1.3060001 0
-0.26776287 0.073827624 1.1570001 0
0.048322864 0.083016194 1.3010001 0
-0.27405238 0.076557145 1.1650001 0
-0.20373333 0.073600002 1.12 0
0.026420001 0.086808577 1.3210001 0
0.081776194 0.086808577 1.3210001 0
0.17107238 0.072417147 1.102 0
0.23014285 0.072622858 1.074 0
0.23987906 0.073096193 1.0810001 0
0.18755049 0.075641908 1.0880001 0
0.070897147 0.093285725 1.3060001 0
0.17144287 0.077928573 1.0910001 0
0.20094001 0.076500006 1.0710001 0
0.24417619 0.077928573 1.0910001 0
0.25801143 0.077714294 1.0880001 0
-0.28195712 0.085140005 1.161 0
0.058682859 0.096140005 1.3110001 0
0.036346667 0.099013336 1.3160001 0
0.16417715 0.084702857 1.098 0
-0.21730001 0.087980002 1.113 0
0.079260007 0.10442191 1.3210001 0
0.19116667 0.085766666 1.085 0
0.23250002 0.085766666 1.085 0
0.01145143 0.10815238 1.3360001 0
-0.25252759 0.094291434 1.138 0
-0.20458001 0.092220001 1.113 0
0.17352095 0.090397149 1.0910001 0
0.21868001 0.089320004 1.0780001 0
0.023994287 0.11239429 1.3260001 0
0.19198668 0.091373339 1.0780001 0
0.028717143 0.11611715 1.3110001 0
0.23782001 0.09574572 1.0810001 0
-0.25341526 0.10332382 1.1420001 0
-0.20819335 0.10576667 1.169 0
0.013839048 0.11951905 1.3210001 0
0.046020955 0.11816191 1.3060001 0
0.090000957 0.12042382 1.3310001 0
0.20636001 0.097533338 1.0780001 0
-0.27437431 0.10908858 1.1570001 0
-0.25300002 0.10842858 1.1500001 0
0.076453343 0.12408001 1.3160001 0
-0.24471429 0.10984953 1.1420001 0
0.01389143 0.12754858 1.3260001 0
0.055971432 0.12562476 1.3060001 0
0.089324765 0.12706763 1.3210001 0
0.097240001 0.12754858 1.3260001 0
0.21930002 0.10302001 1.0710001 0
-0.2354762 0.11280953 1.1500001 0
-0.21412857 0.11310381 1.153 0
0.069195241 0.12958381 1.3210001 0
-0.20220287 0.1173 1.1730001 0
0.03371143 0.13110001 1.3110001 0
0.046373338 0.13160001 1.3160001 0
-0.22730571 0.11749619 1.153 0
0.021549525 0.13563524 1.3310001 0
0.092536196 0.13817048 1.3310001 0
0.20354857 0.11149143 1.074 0
-0.26647714 0.12273429 1.161 0
-0.21412857 0.12188857 1.153 0
0.19048096 0.11681429 1.105 0
-0.25738099 0.12376191 1.1500001 0
-0.20667145 0.12623715 1.1730001 0
0.026420001 0.14216477 1.3210001 0
0.044033337 0.14216477 1.3210001 0
0.061180007 0.14108858 1.3110001 0
0.17537144 0.12010287 1.1160001 0
0.21114002 0.11526 1.0710001 0
0.24941429 0.11891905 1.105 0
-0.24423811 0.12595239 1.1500001 0
0.04869429 0.14358573 1.3110001 0
0.074508578 0.14522858 1.3260001 0
-0.096100003 0.12090001 1.085 0
0.1715381 0.12312857 1.105 0
-0.10985334 0.12217335 1.0780001 0
-0.26555905 0.13333048 1.1570001 0
-0.24352098 0.13333048 1.1570001 0
-0.22291334 0.13286953 1.153 0
-0.20304286 0.13425238 1.1650001 0
0.16101429 0.1273381 1.105 0
-0.2514638 0.13506572 1.153 0
0.17736953 0.12909143 1.102 0
-0.2607381 0.13869049 1.1650001 0
-0.23609048 0.1372619 1.153 0
-0.08110667 0.12833335 1.0780001 0
-0.11856 0.12869334 1.064 0
0.24244 0.13328952 1.102 0
-0.63683999 0.13489716 1.098 0
-0.2133743 0.14411144 1.1730001 0
0.20165333 0.13071999 1.064 0
-0.25013238 0.14434953 1.1570001 0
-0.084422864 0.13324572 1.0680001 0
-0.091693342 0.13401334 1.0580001 0
0.1658143 0.13870001 1.095 0
0.17398953 0.13692668 1.0810001 0
0.19354667 0.13477334 1.064 0
-0.26163334 0.1503 1.169 0
-0.22378001 0.1503 1.169 0
-0.10378477 0.13602859 1.0580001 0
0.25179428 0.13988572 1.0880001 0
-0.66038007 0.14522 1.113 0
-0.24964288 0.15200476 1.1650001 0
-0.23470572 0.15096095 1.1570001 0
0.16582191 0.14892288 1.1090001 0
0.23205334 0.14288001 1.064 0
-0.099586673 0.14886668 1.0780001 0
0.21523145 0.14651906 1.0610001 0
-0.12510858 0.14952001 1.0680001 0
-0.091627628 0.15339907 1.0810001 0
0.19354667 0.15098666 1.064 0
0.18340571 0.15646477 1.0880001 0
0.24663809 0.16057715 1.102 0
-0.1088343 0.15765715 1.0680001 0
0.17317143 0.16267619 1.102 0
-0.10369334 0.16118668 1.0780001 0
0.1658143 0.1658143 1.095 0
0.21662667 0.16324 1.0780001 0
0.22485334 0.16475429 1.0880001 0
0.18993334 0.16529335 1.0780001 0
0.24209811 0.16728668 1.0910001 0
-0.12546001 0.16626 1.0710001 0
-0.45943904 0.16232856 1.033 0
0.2028162 0.17193048 1.0810001 0
0.18258001 0.17238002 1.0710001 0
-0.6201086 0.17881715 1.098 0
-0.57097429 0.16850001 1.011 0
-0.55333334 0.17047618 1 0
-0.52894765 0.17319524 0.98300004 0
0.43416384 0.21241905 1.0880001 0
0.41489813 0.21517049 1.0810001 0
0.42172953 0.21656382 1.0880001 0
0.39937338 0.21662667 1.0780001 0
0.37638003 0.21726002 1.0710001 0
0.43001905 0.22070859 1.0880001 0
0.32837334 0.21459049 1.0480001 0
0.34664288 0.21803334 1.0550001 0
0.34035051 0.21858288 1.0480001 0
0.29412001 0.21594857 1.026 0
0.31565809 0.21868476 1.039 0
0.26714289 0.2166286 1.0200001 0
0.32038859 0.22457144 1.0480001 0
0.24288 0.22176 1.008 0
0.28546572 0.22506 1.023 0
0.19477715 0.21924192 0.98800004 0
0.17640001 0.21933334 0.98000002 0
0.21554191 0.22313811 0.99700004 0
0.23142856 0.22380953 1 0
0.37262574 0.25984284 1.161 0
0.20606858 0.22300571 0.98800004 0
0.38828003 0.26211619 1.1420001 0
0.40710285 0.26303428 1.146 0
0.16888286 0.2242543 0.96900004 0
0.19133334 0.22679999 0.98000002 0
0.13915715 0.22283334 0.95500004 0
0.14996001 0.2254 0.96600002 0
0.32214668 0.30473337 1.3060001 0
0.080339998 0.21806572 0.92700005 0
0.12252858 0.22418192 0.95300007 0
0.32962668 0.30957335 1.3160001 0
0.1035 0.22410001 0.94500005 0
0.31100097 0.30852288 1.3010001 0
0.42525908 0.27081716 1.1420001 0
0.23320192 0.30645907 1.2820001 0
0.28622004 0.31100097 1.3010001 0
0.29975814 0.31219622 1.3060001 0
0.31968001 0.30980569 1.296 0
0.41148001 0.27107999 1.1340001 0
0.066071436 0.22288097 0.92500007 0
0.090130478 0.22577238 0.93700004 0
0.13119048 0.22890477 0.95000005 0
0.21283333 0.30769622 1.2770001 0
0.26043427 0.31227428 1.296 0
0.38236099 0.27878192 1.1570001 0
0.42547145 0.27251714 1.131 0
0.060260002 0.2227 0.91700006 0
0.25205237 0.3135286 1.291 0
0.27910191 0.3135286 1.291 0
0.31010574 0.31255716 1.2870001 0
0.34303713 0.3135286 1.291 0
0.22099239 0.31378478 1.2820001 0
0.33820382 0.31378478 1.2820001 0
0.19684191 0.31277332 1.268 0
0.23564382 0.31622669 1.2820001 0
0.26772574 0.31376001 1.2720001 0
0.29180762 0.31622669 1.2820001 0
0.32345146 0.31376001 1.2720001 0
0.41470003 0.27898002 1.131 0
0.14821428 0.30947143 1.245 0
0.18163143 0.31394571 1.263 0
0.28953144 0.31618285 1.2720001 0
0.29229429 0.31394571 1.263 0
0.31499335 0.31742573 1.2770001 0
0.35041335 0.31866857 1.2820001 0
0.3562476 0.31518856 1.268 0
0.40642858 0.28287429 1.138 0
0.43624288 0.28113428 1.131 0
0.43896002 0.27740571 1.1160001 0
0.016303809 0.22567905 0.90100002 0
0.030266669 0.2274324 0.90800005 0
0.044540003 0.22968668 0.91700006 0
0.16007142 0.31184286 1.245 0
0.21530382 0.31284478 1.2490001 0
0.25480762 0.31760383 1.268 0
0.26583144 0.31635144 1.263 0
0.26871431 0.31409717 1.2540001 0
0.34412667 0.31534952 1.2590001 0
0.41438287 0.28604382 1.1420001 0
0.13258669 0.31093338 1.2320001 0
0.20430477 0.31295237 1.24 0
0.25492856 0.31421426 1.245 0
0.28575715 0.31421426 1.245 0
-0.01596 0.22428 0.88200003 0
0.15775716 0.31200862 1.2270001 0
0.19360001 0.31328002 1.2320001 0
0.22483431 0.31429717 1.2360001 0
0.28369144 0.31429717 1.2360001 0
0.29619142 0.31760287 1.2490001 0
0.30822858 0.31531429 1.24 0
0.33792859 0.31658572 1.245 0
0.42593715 0.28937715 1.138 0
-0.032685716 0.22544762 0.88000005 0
0.0076971436 0.23005906 0.89800006 0
0.095040008 0.31562668 1.2320001 0
0.09900476 0.31332093 1.223 0
0.24445714 0.31767619 1.24 0
0.26571429 0.31767619 1.24 0
0.33784002 0.31665143 1.2360001 0
0.40852386 0.29461908 1.1500001 0
0.41796002 0.29052001 1.1340001 0
0.024801906 0.23176953 0.89800006 0
0.070295244 0.31229523 1.21 0
0.11335144 0.31668288 1.2270001 0
0.14139715 0.31668288 1.2270001 0
0.15146096 0.31332764 1.2140001 0
0.17717335 0.31797338 1.2320001 0
0.21002668 0.31797338 1.2320001 0
0.29310858 0.31900573 1.2360001 0
0.36609146 0.31900573 1.2360001 0
0.43524 0.29268003 1.1340001 0
0.058382858 0.31252 1.202 0
0.084749527 0.31694001 1.2190001 0
0.16833812 0.31694001 1.2190001 0
0.20316668 0.31694001 1.2190001 0
0.21941335 0.32032001 1.2320001 0
0.27514574 0.31694001 1.2190001 0
0.30032286 0.31902003 1.2270001 0
0.31900573 0.32135999 1.2360001 0
0.34706575 0.31902003 1.2270001 0
0.10911429 0.31585717 1.2060001 0
0.13989906 0.31795242 1.2140001 0
0.22246952 0.32030952 1.223 0
0.23701908 0.31795242 1.2140001 0
0.42308384 0.29909524 1.1420001 0
-0.053919047 0.22977811 0.87100005 0
0.031011432 0.31815431 1.2060001 0
0.13021906 0.31920955 1.21 0
0.1425 0.31577998 1.197 0
0.17897999 0.31577998 1.197 0
0.22856572 0.31815431 1.2060001 0
0.0285 0.31806001 1.197 0
0.057751428 0.3159343 1.189 0
0.16194858 0.32045144 1.2060001 0
0.18492001 0.32045144 1.2060001 0
0.21318001 0.31806001 1.197 0
0.36960003 0.32736003 1.2320001 0
-0.089857146 0.22747619 0.85000002 0
-0.071091428 0.22961715 0.85800004 0
-0.063213333 0.23068763 0.86200005 0
0.014671429 0.31712857 1.1850001 0
0.41220763 0.30562097 1.1420001 0
0.42762572 0.30267715 1.131 0
0.057168569 0.31722951 1.177 0
0.19298573 0.31938571 1.1850001 0
0.25986096 0.32396764 1.202 0
0.28599432 0.32504573 1.2060001 0
-0.11025239 0.22935715 0.84500003 0
-0.079514287 0.32842857 1.21 0
-0.066391431 0.33195716 1.223 0
-0.0033628573 0.31947142 1.177 0
0.0055666668 0.31729999 1.169 0
0.032286666 0.31729999 1.169 0
0.093671434 0.32164285 1.1850001 0
0.1189 0.32272854 1.189 0
0.15805428 0.31947142 1.177 0
0.16872476 0.32272854 1.189 0
0.23826 0.3249 1.197 0
0.31577998 0.3249 1.197 0
0.32396764 0.32625714 1.202 0
0.35525239 0.33195716 1.223 0
0.07310953 0.32280669 1.1810001 0
0.10721429 0.32390001 1.1850001 0
0.13159716 0.32280669 1.1810001 0
0.14284478 0.32280669 1.1810001 0
0.21104287 0.32390001 1.1850001 0
0.21784288 0.32062003 1.1730001 0
0.24997239 0.32171333 1.177 0
0.33193716 0.32964003 1.2060001 0
-0.09737619 0.23257619 0.84500003 0
-0.09678667 0.23505335 0.85400003 0
-0.044460002 0.32946 1.197 0
0.094309531 0.3206524 1.1650001 0
0.20065048 0.32395524 1.177 0
0.23268667 0.32175332 1.169 0
-0.069451429 0.34254858 1.2360001 0
0.12936857 0.32176286 1.161 0
0.14042571 0.32176286 1.161 0
0.19638573 0.32287145 1.1650001 0
-0.13974573 0.23133048 0.82900006 0
-0.077071428 0.34741428 1.245 0
0.0011057142 0.32397428 1.161 0
0.018667618 0.32174191 1.153 0
0.066809535 0.32090479 1.1500001 0
0.082142867 0.32090479 1.1500001 0
0.10431904 0.32174191 1.153 0
0.11167714 0.32397428 1.161 0
0.21487144 0.3228581 1.1570001 0
0.29907146 0.33067143 1.1850001 0
0.35317335 0.34378672 1.2320001 0
0.40928572 0.31978858 1.146 0
-0.10173429 0.36158571 1.2870001 0
-0.014238096 0.32309526 1.1500001 0
0.031540956 0.32084763 1.1420001 0
0.12376191 0.32309526 1.1500001 0
0.15536858 0.32506195 1.1570001 0
0.16917428 0.3261857 1.161 0
0.18307143 0.32730955 1.1650001 0
0.19604763 0.32309526 1.1500001 0
0.26517621 0.32730955 1.1650001 0
0.28808478 0.33068097 1.177 0
0.42238286 0.32197145 1.146 0
-0.12267143 0.23505428 0.83100003 0
0.0967981 0.32302287 1.1420001 0
0.13252382 0.32528573 1.1500001 0
0.16799048 0.32189143 1.138 0
0.24487522 0.32613429 1.153 0
0.42876002 0.32076001 1.1340001 0
-0.19123809 0.22780952 0.80000001 0
-0.17442858 0.23179619 0.81400001 0
-0.1618543 0.23378953 0.82100004 0
-0.11567429 0.3718991 1.3060001 0
-0.080017149 0.35709143 1.2540001 0
-0.032286666 0.33288667 1.169 0
0.0032400002 0.32291999 1.1340001 0
0.05981905 0.32519811 1.1420001 0
0.07504572 0.32519811 1.1420001 0
0.11241715 0.32633716 1.146 0
0.12680571 0.32405904 1.138 0
0.14079428 0.32633716 1.146 0
0.15607429 0.32633716 1.146 0
-0.17682667 0.40018669 1.396 0
-0.16357145 0.39388004 1.3740001 0
-0.14807621 0.38757336 1.3520001 0
-0.087530479 0.36091334 1.2590001 0
-0.051685717 0.34571999 1.2060001 0
0.18684 0.32508001 1.1340001 0
0.33413908 0.34801337 1.2140001 0
0.36255237 0.35546666 1.24 0
0.41509527 0.32966667 1.1500001 0
0.42960954 0.32737336 1.1420001 0
-0.20466954 0.22883715 0.79300004 0
-0.18039049 0.23258859 0.80600005 0
-0.14742002 0.23634002 0.81900007 0
-0.090571426 0.36590856 1.268 0
-0.041898094 0.34311143 1.189 0
0.024686668 0.32522002 1.1270001 0
0.06096286 0.32406572 1.123 0
-0.20476858 0.41915715 1.4430001 0
-0.056886673 0.35409051 1.2190001 0
-0.0032400002 0.32940003 1.1340001 0
0.050446671 0.32736668 1.1270001 0
0.078631431 0.32852858 1.131 0
0.14438573 0.32620478 1.123 0
-0.19678858 0.23507428 0.80400002 0
-0.15504001 0.39997715 1.368 0
-0.13056476 0.38915908 1.3310001 0
-0.098125719 0.37190861 1.2720001 0
-0.0744 0.36255237 1.24 0
-0.064061902 0.35758194 1.223 0
-0.049552381 0.35378096 1.21 0
-0.044645716 0.35144192 1.202 0
-0.030265715 0.34413239 1.177 0
0.058090482 0.32425049 1.1090001 0
0.10986666 0.32746667 1.12 0
0.11914001 0.32951334 1.1270001 0
0.3494029 0.35875145 1.2270001 0
0.40928572 0.33506858 1.146 0
-0.2303962 0.23189716 0.78800005 0
-0.2184543 0.42995146 1.4610001 0
-0.13868953 0.39316574 1.3360001 0
-0.12360859 0.38580859 1.3110001 0
0.097066663 0.32959998 1.12 0
0.17924668 0.33166003 1.1270001 0
0.4245657 0.33725142 1.146 0
-0.19243716 0.41851717 1.4130001 0
-0.16357145 0.40696573 1.3740001 0
-0.11478857 0.38386285 1.296 0
-0.037117146 0.349801 1.1810001 0
0.0032000002 0.33173335 1.12 0
0.017890476 0.32729048 1.105 0
0.086091429 0.33054858 1.1160001 0
0.15466666 0.33173335 1.12 0
0.21866 0.33499146 1.131 0
0.29427335 0.35335526 1.1930001 0
0.30336189 0.35602096 1.202 0
0.32622764 0.36105624 1.2190001 0
-0.18358 0.41942 1.4070001 0
-0.064271435 0.36576289 1.2270001 0
-0.042039048 0.35562763 1.1930001 0
0.10878763 0.33058766 1.1090001 0
0.12860572 0.33267429 1.1160001 0
0.17638382 0.33058766 1.1090001 0
0.19450286 0.33267429 1.1160001 0
0.31795242 0.36188763 1.2140001 0
0.33538005 0.36576289 1.2270001 0
0.43178478 0.34042478 1.1420001 0
-0.15504001 0.4104 1.368 0
-0.12754858 0.39780003 1.3260001 0
-0.088156193 0.3804 1.268 0
0.061697148 0.32940003 1.098 0
0.072417147 0.33059999 1.102 0
0.34378672 0.36960003 1.2320001 0
-0.26743716 0.22974953 0.76100004 0
-0.20838001 0.43746004 1.4490001 0
-0.082405716 0.37858859 1.2540001 0
-0.072038092 0.3743619 1.24 0
-0.044794288 0.36409718 1.2060001 0
0.030132383 0.3293781 1.0910001 0
0.092220962 0.32847241 1.0880001 0
0.13119048 0.33269903 1.102 0
0.18483335 0.3348124 1.1090001 0
0.22592571 0.34598288 1.146 0
0.24215142 0.35051143 1.161 0
0.27106765 0.35654956 1.1810001 0
0.28422761 0.35896474 1.189 0
-0.23518382 0.23666762 0.77900004 0
-0.22214574 0.44568861 1.4670001 0
-0.096455246 0.38948381 1.2820001 0
-0.074940003 0.37945813 1.2490001 0
-0.049716193 0.36882478 1.2140001 0
0.062800951 0.32841811 1.0810001 0
-0.29016003 0.23112001 0.75600004 0
-0.21567145 0.4466486 1.4610001 0
-0.16812383 0.42494288 1.3900001 0
-0.14807621 0.41332576 1.3520001 0
-0.12408001 0.40232003 1.3160001 0
-0.10942762 0.39467716 1.291 0
0.077500001 0.3317 1.085 0
0.11087239 0.33261716 1.0880001 0
0.25806001 0.35860288 1.1730001 0
0.29654571 0.36471719 1.1930001 0
0.35317335 0.37664005 1.2320001 0
-0.19325429 0.43651143 1.419 0
-0.17948572 0.42943621 1.396 0
-0.064742863 0.38021716 1.2360001 0
0.023898097 0.33561242 1.0910001 0
0.03191524 0.33253622 1.0810001 0
0.30666858 0.37098858 1.2060001 0
0.36164287 0.38298571 1.245 0
-0.080336191 0.38969049 1.2590001 0
0.01169143 0.34542859 1.1160001 0
0.039891429 0.33242854 1.074 0
0.1548181 0.33769047 1.0910001 0
0.20142572 0.35007143 1.131 0
0.2295019 0.35688096 1.153 0
0.28327146 0.36678573 1.1850001 0
0.28745618 0.36926195 1.1930001 0
0.33304289 0.37978575 1.2270001 0
-0.21026573 0.44939145 1.4430001 0
-0.12203524 0.41139719 1.3210001 0
-0.025519049 0.36281431 1.1650001 0
-0.012005714 0.35689715 1.146 0
0.076000005 0.33136001 1.064 0
0.13654667 0.33572 1.0780001 0
0.42823812 0.35814288 1.1500001 0
-0.32196668 0.23280667 0.74300003 0
0.12581143 0.33652002 1.074 0
-0.28258574 0.23800477 0.75500005 0
-0.21390001 0.45678005 1.4490001 0
-0.20391715 0.45299715 1.437 0
-0.15764572 0.43124571 1.368 0
-0.13563524 0.41958192 1.3310001 0
-0.09328001 0.40098286 1.2720001 0
0.04951334 0.33446765 1.0610001 0
0.27014953 0.37103525 1.177 0
-0.17150857 0.44273144 1.396 0
-0.094013333 0.40657717 1.2820001 0
-0.051857144 0.38374287 1.21 0
-0.034867622 0.37454575 1.1810001 0
-0.0054190475 0.36090857 1.138 0
0.11248 0.33744001 1.064 0
0.29982001 0.37962002 1.197 0
0.33319336 0.38659716 1.2190001 0
0.34472859 0.38913432 1.2270001 0
-0.29991239 0.23864762 0.74800003 0
-0.16416667 0.43996668 1.3790001 0
-0.15572001 0.43837145 1.3740001 0
-0.12502286 0.42305717 1.3260001 0
-0.11275335 0.41508099 1.3010001 0
-0.082997143 0.40295714 1.263 0
0.013817143 0.35605717 1.1160001 0
0.2354762 0.3669048 1.1500001 0
-0.34463048 0.23557904 0.73400003 0
-0.31502858 0.23750477 0.74000001 0
-0.2277343 0.47083718 1.4670001 0
-0.20202002 0.46313429 1.4430001 0
-0.18514571 0.45543143 1.419 0
-0.061934292 0.39380863 1.2270001 0
-0.021153333 0.37519333 1.169 0
0.0221 0.35465237 1.105 0
0.15747143 0.35144287 1.095 0
0.19065429 0.36299714 1.131 0
0.21276 0.36396003 1.1340001 0
0.30768573 0.38835239 1.21 0
0.31690475 0.38835239 1.21 0
0.42823812 0.36909527 1.1500001 0
-0.36388096 0.23407143 0.72500002 0
-0.34917143 0.23439428 0.72600001 0
-0.077319048 0.40324858 1.2490001 0
0.14234953 0.35223716 1.0910001 0
0.22592571 0.36999431 1.146 0
0.28291142 0.38516861 1.1930001 0
-0.37079141 0.23285429 0.71700001 0
-0.14035049 0.43907812 1.3520001 0
0.033879999 0.35009336 1.0780001 0
0.045900002 0.34782001 1.0710001 0
0.25894001 0.3822448 1.177 0
0.29191428 0.39036381 1.202 0
0.35432002 0.40140572 1.2360001 0
-0.38552096 0.23487335 0.71900004 0
-0.21567145 0.47726002 1.4610001 0
0.0053857146 0.36946002 1.131 0
0.015942859 0.36456001 1.1160001 0
0.15428001 0.35998666 1.102 0
0.16854 0.36357999 1.113 0
-0.18090001 0.4623 1.4070001 0
0.086585723 0.34335718 1.0450001 0
0.21282858 0.37654284 1.146 0
0.32263908 0.40184289 1.223 0
0.33674669 0.40480003 1.2320001 0
-0.40403336 0.23562954 0.71300006 0
-0.20751715 0.47687718 1.4430001 0
-0.094013333 0.4236705 1.2820001 0
-0.049920954 0.40285051 1.2190001 0
-0.025606668 0.38632667 1.169 0
-0.0098228576 0.37872574 1.146 0
0.0010838095 0.37608191 1.138 0
0.072235234 0.34336478 1.039 0
0.23029812 0.38236099 1.1570001 0
0.34838092 0.40979046 1.24 0
0.4245657 0.37872574 1.146 0
-0.16416667 0.45835334 1.3790001 0
-0.14550097 0.44937909 1.3520001 0
-0.054922864 0.40783146 1.2270001 0
-0.014275238 0.38323525 1.153 0
0.24964288 0.38722384 1.1650001 0
0.26431909 0.39254194 1.1810001 0
0.2755667 0.39254194 1.1810001 0
-0.21390001 0.48438004 1.4490001 0
0.0096600009 0.37674001 1.1270001 0
0.030325714 0.36704573 1.098 0
0.36756286 0.41752288 1.2490001 0
-0.12851048 0.4491505 1.3360001 0
-0.10696857 0.43402189 1.291 0
-0.083325714 0.42628953 1.268 0
-0.042180002 0.40242001 1.197 0
-0.032839045 0.39973047 1.189 0
-0.0010876191 0.38392955 1.1420001 0
0.10476572 0.35905147 1.0680001 0
0.11149143 0.36106858 1.074 0
0.12952381 0.36577526 1.0880001 0
0.16311905 0.37149048 1.105 0
-0.41410002 0.23903333 0.70700002 0
-0.1654762 0.4699524 1.3900001 0
-0.09328001 0.43005717 1.2720001 0
-0.077628575 0.42397144 1.2540001 0
0.17962286 0.3773143 1.1160001 0
0.29288575 0.40774289 1.2060001 0
0.31460002 0.40909526 1.21 0
0.33440003 0.41653338 1.2320001 0
-0.17554 0.47837999 1.4070001 0
-0.15187715 0.46342 1.363 0
-0.047091432 0.41004002 1.2060001 0
0.14650573 0.37094003 1.0910001 0
0.21861145 0.38828003 1.1420001 0
0.29070002 0.40698001 1.197 0
0.34613335 0.41888002 1.2320001 0
-0.057493336 0.42122671 1.2320001 0
-0.014275238 0.39421618 1.153 0
0.18666667 0.38293332 1.12 0
0.24215142 0.39695144 1.161 0
0.30666858 0.41233718 1.2060001 0
-0.21935144 0.5043686 1.4670001 0
-0.1976143 0.49199149 1.4310001 0
-0.14982858 0.47033143 1.368 0
-0.12908763 0.46139237 1.342 0
-0.10821144 0.44901526 1.3060001 0
-0.075539999 0.4328562 1.2590001 0
-0.032618098 0.40603909 1.1810001 0
0.054060005 0.36822003 1.0710001 0
0.20628001 0.38988003 1.1340001 0
0.32603148 0.42185432 1.2270001 0
0.36518383 0.42941812 1.2490001 0
-0.19055143 0.49056855 1.419 0
-0.067314282 0.42868569 1.24 0
0.10003715 0.3668029 1.0610001 0
0.11118001 0.37026003 1.0710001 0
0.15259524 0.3820143 1.105 0
0.23410954 0.40275717 1.1650001 0
0.30870289 0.41969717 1.2140001 0
-0.17224571 0.48736191 1.4020001 0
-0.09328001 0.44217145 1.2720001 0
-0.045091432 0.42200956 1.2140001 0
0.0053666667 0.3917667 1.1270001 0
0.039891429 0.37334287 1.074 0
0.19065429 0.39315715 1.131 0
0.24465431 0.40775719 1.1730001 0
0.29070002 0.4161 1.197 0
-0.17898001 0.49387717 1.4130001 0
-0.072560951 0.43655527 1.2490001 0
-0.021080954 0.40719527 1.1650001 0
0.081385717 0.36874765 1.0550001 0
0.08993239 0.37084481 1.0610001 0
0.12952381 0.38028193 1.0880001 0
0.27063903 0.41558382 1.189 0
0.30207428 0.42152572 1.2060001 0
0.35546666 0.43340954 1.24 0
-0.0076666675 0.40414289 1.1500001 0
0.34144002 0.43296003 1.2320001 0
0.42276666 0.40519714 1.153 0
-0.19570573 0.50774002 1.437 0
-0.10450953 0.45615333 1.291 0
-0.032618098 0.41728669 1.1810001 0
0.0075400001 0.39962 1.131 0
0.18139334 0.39820668 1.1270001 0
0.20196001 0.40068001 1.1340001 0
0.29616189 0.42753333 1.21 0
-0.21376288 0.52113432 1.4670001 0
-0.19055143 0.50408286 1.419 0
-0.13777526 0.48028195 1.3520001 0
-0.12157334 0.46749336 1.3160001 0
-0.045091432 0.4312591 1.2140001 0
-0.037620001 0.42522001 1.197 0
0.028337141 0.39147237 1.102 0
0.10098001 0.38046002 1.0710001 0
0.12422667 0.3829467 1.0780001 0
0.32369432 0.43587717 1.2270001 0
0.36570954 0.44724479 1.2590001 0
-0.18167144 0.5046429 1.4130001 0
-0.13105524 0.47714287 1.3360001 0
0.064690478 0.3732143 1.0450001 0
0.15794 0.39750001 1.113 0
0.19616953 0.40642858 1.138 0
0.24242002 0.41892859 1.1730001 0
0.27836668 0.42607147 1.1930001 0
-0.22214574 0.52672285 1.4670001 0
-0.19652286 0.51810575 1.4430001 0
-0.15960477 0.49728096 1.3850001 0
-0.14982858 0.49117717 1.368 0
0.11558285 0.38561714 1.074 0
0.22667143 0.41685426 1.161 0
-0.12203524 0.47681811 1.3210001 0
-0.0167 0.42195335 1.169 0
0.024204763 0.39885238 1.105 0
0.14117144 0.39632574 1.098 0
0.30768573 0.43675241 1.21 0
0.34254858 0.44613716 1.2360001 0
-0.17416762 0.50654858 1.396 0
-0.13470002 0.48876861 1.3470001 0
-0.1032362 0.47389144 1.3060001 0
-0.021298096 0.42708287 1.177 0
-0.0076400004 0.41583428 1.146 0
0.056100007 0.38862002 1.0710001 0
0.18203714 0.41039142 1.131 0
0.23551714 0.42127714 1.161 0
0.32836857 0.44522575 1.2270001 0
-0.18358 0.51322001 1.4070001 0
-0.080336191 0.45923525 1.2590001 0
-0.06218667 0.44938672 1.2320001 0
0.10330857 0.3917543 1.074 0
0.21138096 0.41947624 1.1500001 0
0.25049999 0.42640668 1.169 0
0.28291142 0.43516099 1.1930001 0
-0.12802954 0.48803338 1.3310001 0
-0.094673328 0.47336668 1.291 0
-0.091214284 0.46823335 1.2770001 0
-0.030368574 0.43303338 1.1810001 0
0.19764002 0.41580003 1.1340001 0
0.22014287 0.42166668 1.1500001 0
0.29748002 0.44220003 1.2060001 0
0.31668288 0.44990003 1.2270001 0
0.34267142 0.45649999 1.245 0
0.36042574 0.45796669 1.2490001 0
-0.20476858 0.53184861 1.4430001 0
-0.18167144 0.52079147 1.4130001 0
-0.15504001 0.5042057 1.368 0
-0.14292572 0.49830863 1.3520001 0
-0.11997144 0.48872575 1.3260001 0
-0.06259048 0.45702857 1.24 0
0.0010800001 0.41796002 1.1340001 0
0.019995239 0.40727144 1.105 0
0.081848577 0.39105433 1.0610001 0
0.11353714 0.39584571 1.074 0
0.13611524 0.40211147 1.0910001 0
0.16582191 0.40874577 1.1090001 0
0.18026666 0.41279998 1.12 0
0.42127714 0.42791143 1.161 0
-0.072560951 0.46272478 1.2490001 0
-0.0099514285 0.43012285 1.161 0
0.030132383 0.40418953 1.0910001 0
0.14168572 0.40826476 1.102 0
0.3485305 0.46272478 1.2490001 0
-0.17416762 0.51984382 1.396 0
-0.15960477 0.51574767 1.3850001 0
-0.032949526 0.44425052 1.1930001 0
-0.023620002 0.43978196 1.1810001 0
0.29385716 0.45058095 1.21 0
-0.19135715 0.53335714 1.4250001 0
-0.1321343 0.50416291 1.3470001 0
-0.1032362 0.48881719 1.3060001 0
-0.047247618 0.45288575 1.21 0
0.011848572 0.42331713 1.131 0
0.27154952 0.44652289 1.1930001 0
0.34029999 0.46598572 1.245 0
-0.17758667 0.52741909 1.4020001 0
-0.14722286 0.51462853 1.368 0
-0.12342096 0.50259048 1.3360001 0
-0.014473334 0.43976668 1.169 0
-0.0010914286 0.43111429 1.146 0
0.096266665 0.40026665 1.064 0
0.15794 0.41870001 1.113 0
0.17066 0.41870001 1.113 0
0.21064572 0.43111429 1.146 0
0.28386 0.45030001 1.197 0
0.32266667 0.4634667 1.2320001 0
-0.20924285 0.55012858 1.455 0
-0.11656 0.49757335 1.3160001 0
-0.059840005 0.46581337 1.2320001 0
-0.0099514285 0.43896857 1.161 0
0.24324667 0.44501811 1.177 0
0.30300859 0.46089813 1.2190001 0
-0.22305429 0.55974001 1.473 0
-0.11744572 0.50388002 1.3260001 0
-0.10491429 0.49248001 1.296 0
-0.045091432 0.46132004 1.2140001 0
0.028337141 0.41876 1.102 0
0.19764002 0.43092003 1.1340001 0
0.23551714 0.44118002 1.161 0
0.26431909 0.44878006 1.1810001 0
-0.17822 0.53734004 1.4070001 0
-0.078495234 0.48425525 1.268 0
-0.072851434 0.4789086 1.2540001 0
0.068868577 0.40023622 1.0480001 0
0.20409714 0.43766287 1.146 0
0.27474001 0.45714 1.197 0
0.31798002 0.46706957 1.223 0
0.35566762 0.47699907 1.2490001 0
-0.18514571 0.5446257 1.419 0
-0.037777144 0.46133906 1.202 0
0.10780001 0.41374668 1.0780001 0
0.18419142 0.43408859 1.131 0
0.30633238 0.46939906 1.223 0
-0.19570573 0.5542714 1.437 0
-0.15572001 0.52997148 1.3740001 0
-0.13520001 0.52148575 1.3520001 0
-0.02811905 0.45552862 1.1810001 0
-0.016642857 0.44935718 1.1650001 0
-0.0010914286 0.44202858 1.146 0
0.15836573 0.43045714 1.1160001 0
0.2091905 0.44357145 1.1500001 0
0.24604666 0.45089999 1.169 0
0.25445619 0.45398575 1.177 0
-0.17628857 0.54770577 1.4130001 0
-0.12851048 0.51785904 1.3360001 0
-0.045091432 0.47056958 1.2140001 0
0.11916191 0.42172953 1.0880001 0
0.1500819 0.42715618 1.102 0
0.16746666 0.43413332 1.12 0
0.17813332 0.43413332 1.12 0
0.22224857 0.45002571 1.161 0
0.28386 0.46398002 1.197 0
0.33205336 0.47754669 1.2320001 0
-0.091928571 0.50131714 1.2870001 0
-0.072851434 0.4884629 1.2540001 0
0.19833714 0.4432781 1.138 0
0.33792859 0.48495716 1.245 0
-0.18671145 0.56013435 1.4310001 0
-0.081165716 0.49789718 1.2720001 0
-0.073374286 0.49437431 1.263 0
-0.063044764 0.48889431 1.2490001 0
0.0032400002 0.44388002 1.1340001 0
0.0221 0.43252856 1.105 0
0.13280571 0.42978859 1.098 0
0.25982004 0.46227717 1.1810001 0
0.3040781 0.47519431 1.2140001 0
0.32369432 0.4802829 1.2270001 0
0.35804671 0.48889431 1.2490001 0
-0.21935144 0.57702005 1.4670001 0
-0.20202002 0.56758004 1.4430001 0
-0.19570573 0.56522 1.437 0
-0.11951905 0.51959336 1.3210001 0
-0.016757144 0.46138003 1.1730001 0
-0.0099514285 0.45666 1.161 0
0.015942859 0.43896002 1.1160001 0
0.054413334 0.42401335 1.0780001 0
0.24632289 0.46452671 1.1810001 0
0.27246001 0.47082001 1.197 0
0.30967146 0.48262003 1.2270001 0
-0.14982858 0.54068571 1.368 0
-0.13470002 0.53238577 1.3470001 0
0.03043619 0.43555236 1.102 0
0.086457148 0.42211431 1.0680001 0
0.10506001 0.42330003 1.0710001 0
0.12745143 0.43001905 1.0880001 0
0.19250859 0.45136192 1.1420001 0
0.21576191 0.45452383 1.1500001 0
0.25931525 0.4699381 1.189 0
-0.23068382 0.59015435 1.4860001 0
-0.22411428 0.58777148 1.48 0
-0.19734001 0.57546002 1.4490001 0
-0.17974 0.5635457 1.419 0
-0.099591427 0.51271141 1.291 0
-0.088781908 0.50715148 1.2770001 0
0.35851523 0.50000292 1.2590001 0
-0.21288858 0.58300865 1.4610001 0
-0.19023144 0.57343143 1.437 0
-0.17554 0.56146002 1.4070001 0
-0.15753335 0.55467623 1.3900001 0
-0.042356189 0.47965524 1.202 0
-0.019056192 0.46967906 1.177 0
-0.0076666675 0.4589048 1.1500001 0
0.011848572 0.45132285 1.131 0
0.042210478 0.4313705 1.0810001 0
0.11708953 0.43416384 1.0880001 0
0.19754858 0.45730859 1.146 0
0.23410954 0.46489051 1.1650001 0
0.28463808 0.48284763 1.21 0
0.32603148 0.48963144 1.2270001 0
-0.12956858 0.54008287 1.3470001 0
-0.030677145 0.47833622 1.1930001 0
0.31565049 0.49036476 1.223 0
-0.16353144 0.56238854 1.396 0
-0.11362001 0.52814573 1.3110001 0
-0.10531905 0.52411717 1.3010001 0
-0.045277145 0.49108288 1.2190001 0
0.0032400002 0.45684004 1.1340001 0
0.02438 0.44837999 1.113 0
0.034288574 0.43951717 1.0910001 0
0.13195905 0.43951717 1.0910001 0
0.14838572 0.44515714 1.105 0
0.15158001 0.44837999 1.113 0
0.27154952 0.48060861 1.1930001 0
0.30400285 0.49269432 1.223 0
0.34129524 0.49954286 1.24 0
-0.13777526 0.54723811 1.3520001 0
-0.025869526 0.47802386 1.1810001 0
0.10739999 0.43471429 1.074 0
0.25844288 0.47964287 1.1850001 0
0.26245999 0.48288098 1.1930001 0
0.35090953 0.50554764 1.2490001 0
-0.20454001 0.59414005 1.4610001 0
-0.11951905 0.53720665 1.3210001 0
-0.086011432 0.51728004 1.2720001 0
-0.0010876191 0.46441337 1.1420001 0
0.077146672 0.42781335 1.052 0
0.17219333 0.45668665 1.123 0
0.23876286 0.47864667 1.177 0
0.30967146 0.49898008 1.2270001 0
-0.21655716 0.59937435 1.4670001 0
-0.076080002 0.51806855 1.268 0
-0.062842853 0.5086714 1.245 0
-0.0099857152 0.47598574 1.1650001 0
0.11263334 0.44330001 1.085 0
0.16106667 0.4576 1.12 0
0.21782571 0.47435144 1.161 0
0.35724857 0.51602572 1.263 0
-0.1805 0.58492863 1.4250001 0
-0.12851048 0.54839623 1.3360001 0
-0.068074286 0.51473713 1.2540001 0
-0.019056192 0.48313048 1.177 0
0.052020006 0.43962005 1.0710001 0
0.2735981 0.49339238 1.202 0
0.30176574 0.49831817 1.2140001 0
0.3331857 0.51104289 1.245 0
-0.22219238 0.61279815 1.4860001 0
-0.14786857 0.56661141 1.3740001 0
-0.12956858 0.5554772 1.3470001 0
-0.1032362 0.53856957 1.3060001 0
-0.033059999 0.49362001 1.197 0
0.14378476 0.45444378 1.102 0
0.20628001 0.47258857 1.146 0
0.24941429 0.48867145 1.1850001 0
0.29385716 0.49898094 1.21 0
0.34514856 0.51712579 1.2540001 0
-0.21463715 0.61024284 1.473 0
-0.092214279 0.53484285 1.291 0
-0.075539999 0.52158576 1.2590001 0
-0.030471429 0.49092859 1.1850001 0
0.054413334 0.44660002 1.0780001 0
0.12330666 0.45074287 1.0880001 0
0.18684 0.46980003 1.1340001 0
-0.20092857 0.60555714 1.455 0
-0.14201143 0.56934857 1.368 0
-0.11997144 0.55186862 1.3260001 0
-0.042638097 0.50359046 1.21 0
0.0032742859 0.47695428 1.146 0
0.079827629 0.44157812 1.0610001 0
0.14946 0.46322 1.113 0
0.17604001 0.47196001 1.1340001 0
0.22600667 0.4865267 1.169 0
-0.050248574 0.51300293 1.2270001 0
-0.0054904758 0.4820638 1.153 0
0.0403 0.45363334 1.085 0
0.10164001 0.45070669 1.0780001 0
0.30176574 0.50756764 1.2140001 0
0.31668288 0.51300293 1.2270001 0
-0.19927144 0.60606003 1.4430001 0
-0.17359714 0.59346002 1.4130001 0
-0.11197048 0.55482 1.3210001 0
-0.060034286 0.51912004 1.2360001 0
0.11294477 0.45696002 1.0880001 0
0.12780286 0.45822003 1.0910001 0
0.42202953 0.48594001 1.1570001 0
-0.1321343 0.56830579 1.3470001 0
-0.073374286 0.53286576 1.263 0
0.092213333 0.44890666 1.064 0
