# .PCD v0.7 - Point Cloud Data file format
VERSION 0.7
FIELDS x y z rgb
SIZE 4 4 4 4
TYPE F F F F
COUNT 1 1 1 1
WIDTH 294
HEIGHT 1
VIEWPOINT 0 0 0 1 0 0 0
POINTS 294
DATA ascii
0.27474001 0.50501996 1.197 7.5459656e-39
-0.033059999 0.50730002 1.197 3.8707815e-39
-0.19734001 0.60582 1.4490001 2.0261459e-39
-0.2001 0.61410004 1.4490001 2.2094595e-39
0.032417145 0.46534288 1.098 4.6998149e-39
0.34753716 0.52906859 1.2540001 6.8098425e-39
-0.1321343 0.57087147 1.3470001 2.4889177e-39
0.14946 0.46322 1.113 8.0994855e-39
-0.22785333 0.62978095 1.4860001 1.9335817e-39
0.35090953 0.50554764 1.2490001 6.9945869e-39
-0.14786857 0.57708001 1.3740001 2.5778819e-39
0.34377241 0.52695906 1.2490001 6.9013165e-39
-0.067802854 0.52933812 1.2490001 3.50092e-39
0.36446571 0.53286576 1.263 6.8091348e-39
0.29945335 0.51219243 1.2140001 7.5416664e-39
-0.16353144 0.59163815 1.396 2.8515765e-39
0.2019143 0.47913715 1.146 8.1009429e-39
0.050633334 0.45983335 1.085 3.1285319e-39
-0.10244571 0.50482285 1.296 2.5811161e-39
0.19973142 0.48350286 1.146 8.007692e-39
0.42127714 0.48540857 1.161 7.1869543e-39
0.13489716 0.46534288 1.098 7.8243392e-39
-0.099977143 0.54925716 1.296 3.683505e-39
-0.0010914286 0.47477144 1.146 4.4228833e-39
0.24941429 0.49318573 1.1850001 8.1009162e-39
0.068868577 0.40223241 1.0480001 7.8250762e-39
-0.19734001 0.59754002 1.4490001 2.2098225e-39
-0.047755238 0.51831907 1.223 4.4196449e-39
-0.2001 0.58374006 1.4490001 2.0264948e-39
0.0010914286 0.48568571 1.146 4.1470069e-39
0.27474001 0.49817997 1.197 7.6385172e-39
-0.033059999 0.49817997 1.197 3.9629645e-39
-0.1321343 0.54778004 1.3470001 2.4867527e-39
-0.22785333 0.59864569 1.4860001 2.1179898e-39
0.14892288 0.448881 1.1090001 7.7321575e-39
0.032417145 0.44861144 1.098 4.6076305e-39
-0.14722286 0.54850286 1.368 2.4867555e-39
0.3485305 0.49841052 1.2490001 7.1775348e-39
0.35090953 0.49603143 1.2490001 6.9027528e-39
-0.067802854 0.49841052 1.2490001 3.5005697e-39
0.36687142 0.49918574 1.263 6.7187287e-39
0.29945335 0.49831817 1.2140001 7.2704549e-39
-0.16884953 0.54909337 1.396 2.3938438e-39
0.14798287 0.39986858 1.102 8.0090863e-39
0.13698858 0.44861144 1.098 8.373934e-39
-0.099977143 0.49001145 1.296 3.0399348e-39
0.20628001 0.44857714 1.146 7.9161915e-39
0.054413334 0.44865337 1.0780001 5.6120168e-39
-0.10244571 0.49988571 1.296 2.5800371e-39
-0.19927144 0.54834002 1.4430001 2.3020097e-39
0.19903429 0.44918668 1.1420001 7.7325121e-39
0.42423338 0.44627145 1.1570001 7.1894641e-39
-0.047755238 0.49968284 1.223 3.9622387e-39
-0.20286001 0.54786003 1.4490001 2.2105329e-39
-0.0054571428 0.44857714 1.146 4.3281597e-39
0.24997239 0.44950193 1.177 7.8250762e-39
0.41801715 0.40710285 1.146 5.9919957e-39
-0.22411428 0.5483048 1.48 1.9346663e-39
0.0010876191 0.44483623 1.1420001 4.1466467e-39
0.28386 0.44802001 1.197 7.4566595e-39
0.070864767 0.39824003 1.0480001 7.7339596e-39
-0.039900001 0.44802001 1.197 3.9597233e-39
-0.13726573 0.49903145 1.3470001 2.5789511e-39
-0.14982858 0.49117717 1.368 2.6700775e-39
0.34978572 0.44938573 1.245 6.9949624e-39
0.29846668 0.44827619 1.21 7.3640953e-39
-0.17150857 0.49857143 1.396 2.3952787e-39
0.36042574 0.44845048 1.2490001 6.7198175e-39
0.090826675 0.34833527 1.0480001 7.0875098e-39
-0.070181906 0.44845048 1.2490001 2.6725775e-39
0.36810765 0.44964287 1.2590001 6.536864e-39
0.028234286 0.39841715 1.098 4.4228875e-39
-0.19844286 0.49952856 1.437 2.3942039e-39
-0.049716193 0.44975811 1.2140001 3.4087104e-39
-0.20838001 0.49818003 1.4490001 2.3027299e-39
0.42423338 0.39999145 1.1570001 7.0007568e-39
0.1998 0.39852002 1.1340001 8.0087458e-39
0.14326286 0.39841715 1.098 7.9169257e-39
-0.099282861 0.44983715 1.2870001 2.579307e-39
0.05012 0.39993712 1.074 2.9459315e-39
-0.10491429 0.4480457 1.296 2.7626333e-39
0.15162857 0.37750286 1.098 7.9179963e-39
-0.22586001 0.49801433 1.473 2.3927732e-39
0.42893144 0.38090858 1.146 7.835202e-39
0.21501143 0.39837143 1.146 8.1002408e-39
-0.0076400004 0.39837143 1.146 3.5938247e-39
0.24827334 0.39746001 1.169 7.8257867e-39
0.02405143 0.34822285 1.098 4.0515406e-39
-0.14873333 0.44878668 1.358 2.4867527e-39
0.34848002 0.39776003 1.2320001 5.3390396e-39
0.29977715 0.39625716 1.2060001 7.2729716e-39
-0.17416762 0.44804952 1.396 2.3945556e-39
-0.19844286 0.44752288 1.437 2.4860604e-39
-0.049716193 0.39888576 1.2140001 3.2236044e-39
-0.21114002 0.44850004 1.4490001 2.3945682e-39
0.0010800001 0.39852002 1.1340001 3.8697123e-39
0.28841999 0.39786002 1.197 7.1815187e-39
0.37470001 0.3937324 1.2490001 4.968825e-39
0.0285 0.31806001 1.197 1.5651579e-39
0.29619142 0.31760287 1.2490001 1.3793317e-39
-0.18480381 0.39752764 1.396 2.4878331e-39
-0.42441148 0.24874668 0.70400006 3.5916611e-39
-0.19988 0.23788002 0.79800004 3.1318194e-39
0.39837143 0.29141143 1.146 7.6508023e-39
-0.087182865 0.34992573 1.2540001 3.1317661e-39
0.09725143 0.32940003 1.098 3.4962201e-39
-0.10985143 0.39867428 1.296 2.7644284e-39
0.099320002 0.32415429 1.146 2.298044e-39
0.30666 0.34998 1.197 7.1811151e-39
-0.14496286 0.39896861 1.3470001 2.7640598e-39
0.23029143 0.34816572 1.146 7.6403304e-39
0.19988571 0.31133717 1.2720001 1.0119869e-39
-0.082077146 0.3485305 1.2490001 3.1314144e-39
0.15790287 0.34822285 1.098 5.6123895e-39
-0.22214574 0.4484829 1.4670001 2.0279493e-39
0.42674857 0.34816572 1.146 6.7267007e-39
0.19973142 0.32633716 1.146 3.0366782e-39
0.40660286 0.33387715 1.1570001 6.4504263e-39
0.14952572 0.32633716 1.146 2.114373e-39
0.39999145 0.3228581 1.1570001 6.5415877e-39
0.038199998 0.32197145 1.146 1.6566319e-39
0.29982001 0.3249 1.197 3.8639152e-39
0.14934 0.31806001 1.197 1.4711658e-39
0.37587142 0.34741428 1.245 3.5891345e-39
-0.012005714 0.34816572 1.146 3.0417285e-39
0.24966 0.32262 1.197 2.1147303e-39
-0.14982858 0.38434285 1.368 2.6708076e-39
0.099179998 0.31806001 1.197 1.1970999e-39
0.3485305 0.31760287 1.2490001 1.3800506e-39
0.19722001 0.32033998 1.197 1.5629999e-39
0.14869049 0.30808669 1.2490001 5.5282626e-40
0.35287333 0.3135286 1.291 1.1045539e-39
-0.044460002 0.34770003 1.197 2.8562625e-39
0.24861048 0.31522381 1.2490001 1.1049014e-39
0.097702861 0.31194288 1.2360001 1.4708043e-39
0.34930286 0.31227428 1.296 1.1045483e-39
0.19865048 0.31522381 1.2490001 1.0127044e-39
0.028809523 0.31460002 1.21 1.9299818e-39
0.29746285 0.31227428 1.296 1.0127058e-39
-0.049388576 0.34801716 1.2060001 3.132499e-39
0.24562284 0.30486858 1.296 6.4320861e-40
-0.29991239 0.23864762 0.74800003 8.2979864e-39
0.33084857 0.30803144 1.3310001 1.197097e-39
-0.398601 0.24242002 0.71300006 1.1613045e-38
0.42308384 0.29909524 1.1420001 6.7270608e-39
-0.10095239 0.23178667 0.84800005 1.1438387e-38
0.40852386 0.29899999 1.1500001 7.5596899e-39
-0.16029048 0.23848097 0.82100004 1.2879292e-39
0.39421618 0.29978001 1.153 7.3749483e-39
0.4107143 0.24423811 1.1500001 2.027578e-39
0.39976192 0.24642859 1.1500001 4.5118237e-39
0.009407619 0.23348002 0.89800006 1.8406896e-40
-0.20190476 0.23999999 0.80000001 3.8607006e-39
0.39837143 0.24993716 1.146 4.6983828e-39
-0.26247999 0.24189334 0.77200001 2.8602421e-39
-0.065381907 0.23918191 0.86900002 3.4072628e-39
0.046286669 0.23492669 0.91700006 1.7466709e-39
0.14996001 0.23092 0.96600002 1.1023861e-39
0.40710285 0.24775428 1.146 3.4086809e-39
0.45070285 0.22064573 1.098 6.7134276e-39
0.24937999 0.22627144 1.011 5.89518e-39
0.34865239 0.22406192 1.0550001 7.4552638e-39
-0.21052 0.23940001 0.79800004 5.7925377e-39
-0.0008514286 0.23244001 0.89400005 7.354729e-40
0.097788572 0.22697714 0.94200003 1.308888e-38
0.19854096 0.23053335 0.98800004 1.8407316e-40
0.2972286 0.22660002 1.0300001 3.2146067e-39
0.45234478 0.21935047 1.102 9.864938e-39
0.39937338 0.22278668 1.0780001 3.2229416e-39
-0.30008382 0.24135619 0.75200003 3.311187e-39
-0.097721912 0.23178667 0.84800005 1.0701191e-38
0.13091429 0.23022859 0.94800007 5.5173324e-40
0.22123906 0.22503716 0.99700004 1.0049689e-38
0.34035051 0.22257526 1.0480001 8.1085869e-39
0.44861144 0.22064573 1.098 6.9028621e-39
0.24873716 0.16267619 1.102 2.1382975e-38
-0.54835337 0.17082953 0.99100006 1.8435134e-38
-0.4495486 0.16771239 1.0420001 1.9081258e-38
0.1568 0.176 1.12 1.9171083e-38
-0.079786666 0.17304382 1.0880001 1.9267441e-38
-0.56116861 0.16996478 0.99700004 1.7980644e-38
-0.46079525 0.16222382 1.0450001 1.7610087e-38
0.38189998 0.17214 1.197 1.8714264e-38
-0.13074954 0.17193048 1.0810001 1.5761877e-38
0.14826667 0.17173333 1.12 1.7328322e-38
-0.64938861 0.15581143 1.098 1.9272338e-40
0.25201714 0.18090858 1.098 1.6046375e-38
0.2499257 0.18090858 1.098 1.2827064e-38
0.25993809 0.17995714 1.105 1.9267426e-38
0.16417715 0.17881715 1.098 1.650422e-38
0.38578478 0.17285904 1.202 1.8621351e-38
0.25620002 0.14953715 1.098 1.8898301e-38
-0.6622315 0.15103525 1.1090001 3.2239814e-39
0.20769049 0.15540476 1.5250001 1.7886258e-38
-0.66402858 0.15581143 1.098 3.2243093e-39
0.2499257 0.13280571 1.098 2.2208573e-38
-0.48352668 0.15060668 1.189 1.8159292e-38
-0.20862001 0.15846001 1.197 1.0768504e-38
0.26133332 0.12693334 1.12 1.7975274e-38
0.098780006 0.1500943 1.3470001 1.5305554e-38
0.19554858 0.11816572 1.098 2.3407322e-38
0.011588573 0.14550097 1.3520001 1.3639551e-38
0.17495336 0.10626 1.1270001 1.7139182e-38
-0.096100003 0.12090001 1.085 2.3141823e-38
-0.1085 0.11676667 1.085 2.3417683e-38
0.026520003 0.15028 1.3260001 1.6873602e-38
0.24426667 0.112 1.12 1.3820684e-38
-0.58039433 0.16706859 1.0140001 1.7331723e-38
-0.27106765 0.15859143 1.1810001 1.0776065e-38
0.27427143 0.051100001 1.095 1.4747684e-38
-0.67309999 0.13462 1.113 2.6715279e-39
-0.19840857 0.12666762 1.177 9.9564498e-39
-0.2586686 0.10368571 1.146 1.0030573e-38
0.1060819 0.14953715 1.342 1.5211564e-38
-0.63683999 0.13489716 1.098 9.0406172e-39
0.28479999 0.052266669 1.12 1.456438e-38
0.095857143 0.14953715 1.342 1.5213358e-38
-0.16964287 0.15607144 1.4250001 1.6414457e-38
-0.2133743 0.14858001 1.1730001 1.0599263e-38
0.016677145 0.14752859 1.3470001 1.4747265e-38
-0.28389999 0.10354 1.169 1.2166237e-38
0.27914572 0.035294287 1.123 1.8616061e-38
0.080820009 0.062860005 1.3470001 1.9817026e-38
-0.30887428 0.060028572 1.146 6.997077e-39
-0.24926761 0.080160953 1.153 4.0522693e-39
-0.17034 0.054553334 1.169 4.0598321e-39
-0.29796001 0.062211428 1.146 3.8761485e-39
0.10481714 0.092188574 1.3260001 1.4839169e-38
-0.24906476 0.081571437 1.1420001 5.8890002e-39
0.26665717 0.049148574 1.098 1.6308384e-38
0.055542856 0.067885712 1.296 2.0737554e-38
-0.22482857 0.049148574 1.098 5.5328196e-39
0.054080956 0.06463334 1.3850001 2.0187265e-38
-0.30082002 0.067216195 1.1570001 1.2070716e-38
0.2499257 0.051240001 1.098 2.3417429e-38
0.15389143 0.070942864 1.146 1.4562877e-38
0.14734286 0.066577144 1.146 1.4384566e-38
-0.23146667 -0.11626667 1.12 1.2318236e-38
-0.17135428 0.051297143 1.146 5.3494905e-39
0.23999999 0.024533333 1.12 2.2949642e-38
0.01917143 0.072851434 1.342 1.2728419e-38
-0.28934002 0.092722863 1.1730001 1.4472905e-38
0.19973142 0.034508571 1.098 2.3417499e-38
0.14952572 0.036017142 1.146 2.1672615e-38
-0.32197145 0.038199998 1.146 9.6796948e-39
-0.20961811 0.0078466665 1.177 4.7923483e-39
0.15170857 0.036017142 1.146 2.340886e-38
-0.29796001 0.0076400004 1.146 5.9909097e-39
-0.19298573 0.012414286 1.1850001 5.2443413e-39
-0.24253906 0.0010876191 1.1420001 2.9509454e-39
-0.42441148 0.25008762 0.70400006 3.9597233e-39
0.14744572 0.33358288 1.098 7.272966e-39
-0.099282861 0.39835715 1.2870001 2.763355e-39
-0.33167335 -0.0033057143 1.1570001 1.4519038e-38
0.12376191 0.033952381 1.1500001 1.2272735e-38
-0.19754858 0.0032742859 1.146 5.7928487e-39
0.04596667 0.066980004 1.3790001 2.0475336e-38
-0.25620002 0.044965714 1.098 3.9697777e-39
0.2016 -0.0010666667 1.12 1.8060026e-38
-0.074940003 0.39849052 1.2490001 2.6725845e-39
-0.31323999 -0.0010914286 1.146 1.4825522e-38
-0.24912286 -0.016757144 1.1730001 2.5850594e-39
-0.16309048 -0.021370478 1.1810001 1.6835067e-38
-0.29796001 -0.020737143 1.146 1.3318716e-38
-0.66916865 -0.048037145 1.1730001 1.4290701e-38
-0.042180002 0.39786002 1.197 2.3970794e-39
-0.19754858 -0.0098228576 1.146 7.5427384e-39
-0.28338858 -0.02405143 1.098 1.2857384e-38
-0.21228001 -0.032417145 1.098 8.276391e-39
-0.64978004 0.14522 1.113 4.0538009e-39
0.19649714 0.15633714 1.506 1.7977779e-38
-0.64931905 0.15680477 1.105 1.0591716e-38
-0.69305718 -0.049114283 1.146 2.7619775e-39
-0.2499257 0.063788578 1.098 3.228289e-39
-0.33066002 0.012246666 1.169 1.2524235e-38
-0.24993716 -0.0010914286 1.146 5.8003723e-39
-0.19973142 0.059605718 1.098 3.4130264e-39
-0.27878192 0.049585715 1.1570001 4.7912552e-39
0.2478343 0.049148574 1.098 2.3417404e-38
-0.69063812 -0.06634476 1.1420001 5.0855938e-39
-0.33430955 0.24281429 0.73900002 3.8632748e-39
0.2984086 0.30839714 1.3110001 1.1045399e-39
-0.19927143 -0.078631431 1.131 1.1572007e-38
-0.19973142 0.0052285716 1.098 5.1622042e-39
-0.26070002 -0.016928572 1.1850001 6.0632965e-39
-0.24993716 0.11241715 1.146 9.8479655e-39
-0.25614861 -0.086091429 1.1160001 1.4265113e-38
-0.13983144 0.44771716 1.3470001 2.5789567e-39
0.30666 0.35226002 1.197 7.0903642e-39
0.19946666 -0.0010666667 1.12 1.8063256e-38
0.17463429 0.09725143 1.098 1.7969984e-38
-0.67603141 -0.071339995 1.189 1.7751873e-39
-0.23589429 -0.061397146 1.131 1.1575579e-38
-0.1935838 -0.11016095 1.123 1.5835712e-38
