# .PCD v0.7 - Point Cloud Data file format
VERSION 0.7
FIELDS x y z rgb
SIZE 4 4 4 4
TYPE F F F F
COUNT 1 1 1 1
WIDTH 436
HEIGHT 1
VIEWPOINT 0 0 0 1 0 0 0
POINTS 436
DATA ascii
-0.23489144 -0.10734858 1.1160001 7.3614833e-40
-0.20458001 -0.10706 1.113 2.7587643e-40
-0.20384477 -0.10245048 1.1090001 2.7587643e-40
-0.20595716 -0.096113339 1.1090001 2.7587643e-40
-0.20731904 -0.093661904 1.105 2.7587643e-40
-0.23047143 -0.091557145 1.105 9.1841101e-41
-0.23257619 -0.083138093 1.105 2.7587643e-40
-0.18074952 -0.082353331 1.123 4.5991316e-40
-0.24977143 -0.079714291 1.1160001 9.2018506e-40
-0.2262619 -0.076823808 1.105 9.2018506e-40
-0.1885 -0.078631431 1.131 9.1841101e-41
-0.67536861 -0.076477148 1.131 9.1841101e-41
-0.68183148 -0.074322857 1.131 9.1841101e-41
-0.2249686 -0.072877146 1.1090001 2.7605552e-39
-0.1935838 -0.073797144 1.123 9.1841101e-41
-0.19144475 -0.071658097 1.123 2.7587643e-40
-0.21363333 -0.068404764 1.105 9.1841101e-41
-0.20855714 -0.06951905 1.123 9.1841101e-41
-0.18998002 -0.06976667 1.1270001 2.7587643e-40
-0.21152858 -0.066299997 1.105 9.1841101e-41
-0.19642001 -0.067620009 1.1270001 4.4168914e-39
-0.20214 -0.065240949 1.123 2.7587643e-40
-0.20000096 -0.065240949 1.123 2.7587643e-40
-0.21651906 -0.058090482 1.1090001 9.1841101e-41
-0.20088001 -0.058457147 1.1160001 9.1841101e-41
-0.23130573 -0.055978097 1.1090001 9.1841101e-41
-0.20384477 -0.055978097 1.1090001 9.1841101e-41
-0.66020668 -0.054553334 1.169 9.1841101e-41
-0.20731904 -0.051566668 1.105 9.1841101e-41
-0.23047143 -0.049461905 1.105 9.1841101e-41
-0.20942381 -0.049461905 1.105 2.7587643e-40
-0.21784286 -0.047357146 1.105 9.1841101e-41
-0.2157381 -0.047357146 1.105 9.1841101e-41
-0.20595716 -0.047528572 1.1090001 2.7587643e-40
-0.19025144 -0.047828574 1.1160001 9.1841101e-41
-0.19822001 -0.04558 1.113 2.7587643e-40
-0.23341811 -0.04330381 1.1090001 2.7587643e-40
-0.67976195 -0.042417143 1.1420001 2.7587643e-40
-0.68193722 -0.040241905 1.1420001 9.1841101e-41
-0.23914286 -0.039325718 1.1160001 9.1841101e-41
-0.23914286 -0.0372 1.1160001 9.1841101e-41
-0.67976195 -0.035891429 1.1420001 9.1841101e-41
-0.24426667 -0.030933332 1.12 9.1841101e-41
-0.17510667 -0.031540956 1.1420001 9.1841101e-41
-0.17510667 -0.029365715 1.1420001 4.5991316e-40
-0.2298457 -0.026238095 1.102 9.1841101e-41
-0.1824 -0.026666667 1.12 9.1841101e-41
-0.28338858 -0.02405143 1.098 9.1841101e-41
-0.23257619 -0.024204763 1.105 9.1841101e-41
-0.19962001 -0.02218 1.1090001 9.1841101e-41
-0.18666667 -0.022400001 1.12 9.1841101e-41
-0.25307146 -0.021370478 1.1810001 9.1841101e-41
-0.19212668 -0.018246669 1.1270001 9.1841101e-41
-0.26287428 -0.015342858 1.074 9.1841101e-41
-0.23046 -0.0167 1.169 9.1841101e-41
-0.21351048 -0.016257143 1.138 9.1841101e-41
-0.20844001 -0.0162 1.1340001 9.1841101e-41
-0.25982004 -0.014621906 1.1810001 9.1841101e-41
-0.24688859 -0.014522858 1.1730001 9.1841101e-41
-0.24298574 -0.012204763 1.1650001 9.1841101e-41
-0.1846543 -0.012162857 1.161 9.1841101e-41
-0.24742381 -0.0099857152 1.1650001 1.0120262e-39
-0.22823334 -0.01002 1.169 1.3800982e-39
-0.21932666 -0.01002 1.169 9.1841101e-41
-0.26547429 -0.0071200007 1.0680001 9.1841101e-41
-0.2563 -0.0077666673 1.1650001 9.1841101e-41
-0.21487144 -0.0077133342 1.1570001 9.1841101e-41
-0.18557809 -0.0076866667 1.153 9.1841101e-41
-0.15859143 -0.007873334 1.1810001 9.1841101e-41
-0.22967143 -0.0055476194 1.1650001 9.1841101e-41
-0.21487144 -0.0055095241 1.1570001 2.7587643e-40
-0.18728572 -0.0054761907 1.1500001 4.5991316e-40
0.20384477 -0.0052809529 1.1090001 9.1841101e-41
-0.31432194 -0.0032628572 1.1420001 2.3002833e-39
-0.22967143 -0.0033285718 1.1650001 9.1841101e-41
-0.22301431 -0.0033285718 1.1650001 9.1841101e-41
-0.22079526 -0.0033285718 1.1650001 9.1841101e-41
-0.21857621 -0.0033285718 1.1650001 9.1841101e-41
-0.18728572 -0.0032857144 1.1500001 2.7587643e-40
-0.16811334 -0.0033399998 1.169 2.7587643e-40
-0.16029619 -0.0033628573 1.177 7.3614833e-40
-0.33272287 -0.0010980952 1.153 1.8403701e-39
-0.2675086 -0.0010171429 1.0680001 9.1841101e-41
-0.19250859 -0.0010876191 1.1420001 9.1841101e-41
-0.191 -0.0010914286 1.146 9.1841101e-41
-0.16811334 -0.0011133334 1.169 9.1841101e-41
-0.29588002 0.0010838095 1.138 1.3800982e-39
-0.27157715 0.0010171429 1.0680001 9.1841101e-41
-0.26547429 0.0010171429 1.0680001 1.1960629e-39
-0.19468382 0.0032628572 1.1420001 9.1841101e-41
-0.19536571 0.0054571428 1.146 9.1841101e-41
0.20373333 0.0053333333 1.12 2.7587643e-40
-0.30232573 0.0076400004 1.146 9.1841101e-41
-0.23589429 0.0075400001 1.131 2.7587643e-40
-0.19250859 0.0076133339 1.1420001 4.5991316e-40
0.17324571 0.0074400003 1.1160001 2.8527564e-39
-0.26042667 0.0091200005 1.064 9.1841101e-41
0.19496287 0.011848572 1.131 9.1841101e-41
-0.26023334 0.013061905 1.0550001 9.1841101e-41
-0.19233431 0.014621906 1.1810001 9.1841101e-41
0.15893334 0.013866667 1.12 9.1841101e-41
0.19642001 0.013953334 1.1270001 1.1960629e-39
-0.22894667 0.015400002 1.0780001 9.1841101e-41
-0.18333621 0.01687143 1.1810001 9.1841101e-41
0.23914286 0.015942859 1.1160001 9.2018506e-40
0.2136343 0.018068571 1.1160001 4.5991316e-40
-0.29588002 0.02059238 1.138 4.5991316e-40
0.21730001 0.020140002 1.113 9.1841101e-41
-0.22809714 0.021480002 1.074 2.7587643e-40
0.22790001 0.022260001 1.113 9.1841101e-41
-0.28188002 0.024840001 1.1340001 9.1841101e-41
0.23276572 0.024445714 1.1160001 9.1841101e-41
0.23489144 0.024445714 1.1160001 9.1841101e-41
-0.26676002 0.027000003 1.1340001 9.1841101e-41
-0.22415714 0.026309524 1.105 9.1841101e-41
-0.17762573 0.027928574 1.1730001 9.1841101e-41
0.23214 0.0265 1.113 9.1841101e-41
0.23489144 0.02657143 1.1160001 9.1841101e-41
-0.29371238 0.029262858 1.138 2.7587643e-40
0.12725145 0.029365715 1.1420001 9.1841101e-41
-0.28620002 0.031320002 1.1340001 9.1841101e-41
-0.26336572 0.031430475 1.138 9.1841101e-41
-0.23987906 0.029856192 1.0810001 9.1841101e-41
-0.24186763 0.030629527 1.1090001 9.1841101e-41
-0.21378572 0.030242858 1.095 9.1841101e-41
-0.16478001 0.032507621 1.177 9.1841101e-41
0.21095428 0.03043619 1.102 2.7587643e-40
0.26182002 0.03074 1.113 9.1841101e-41
-0.3045505 0.033598095 1.138 9.1841101e-41
-0.27637142 0.033598095 1.138 9.1841101e-41
-0.22205238 0.032623809 1.105 9.1841101e-41
0.1255143 0.033834286 1.146 9.1841101e-41
-0.29154477 0.035765715 1.138 9.1841101e-41
-0.26390001 0.035545714 1.131 9.1841101e-41
-0.24730954 0.034728572 1.105 9.1841101e-41
-0.18998002 0.037566669 1.1270001 9.1841101e-41
-0.16868858 0.039100002 1.1730001 9.1841101e-41
0.1971 0.036499999 1.095 9.1841101e-41
-0.18419142 0.039854284 1.131 9.1841101e-41
0.17112 0.041451432 1.1160001 9.1841101e-41
0.23255715 0.042757142 1.095 2.7587643e-40
0.25572857 0.04314762 1.105 2.7587643e-40
-0.19093333 0.045866664 1.12 9.1841101e-41
0.1715381 0.045252379 1.105 9.1841101e-41
0.2082743 0.044556193 1.0880001 9.1841101e-41
-0.25410861 0.047057144 1.098 9.1841101e-41
-0.19093333 0.048 1.12 2.7587643e-40
0.23378573 0.046757147 1.0910001 2.7587643e-40
0.27666 0.047700003 1.113 2.7587643e-40
0.032571428 0.061234292 1.368 9.1841101e-41
0.045800004 0.061502859 1.3740001 9.1841101e-41
0.1359524 0.051118098 1.1420001 2.7587643e-40
0.2478343 0.049148574 1.098 9.1841101e-41
0.26972762 0.049327616 1.102 9.1841101e-41
-0.28720954 0.053106666 1.138 2.7587643e-40
-0.20412953 0.050773337 1.0880001 9.1841101e-41
0.024573334 0.063373335 1.358 9.1841101e-41
0.02736 0.063839994 1.368 9.1841101e-41
0.032571428 0.063839994 1.368 9.1841101e-41
0.035177141 0.063839994 1.368 2.7587643e-40
0.040388573 0.063839994 1.368 2.7587643e-40
0.080820009 0.062860005 1.3470001 9.1841101e-41
0.05862857 0.066445716 1.368 9.1841101e-41
0.071657151 0.069051422 1.368 9.1841101e-41
0.074262857 0.069051422 1.368 9.1841101e-41
0.075070478 0.067436196 1.3360001 9.1841101e-41
0.23456667 0.054766666 1.085 9.1841101e-41
-0.30450857 0.060028572 1.146 9.1841101e-41
-0.30127048 0.05981905 1.1420001 9.1841101e-41
-0.17342 0.059242859 1.131 9.1841101e-41
0.045844767 0.068147629 1.3010001 9.1841101e-41
0.17624286 0.057357144 1.095 9.1841101e-41
0.18755049 0.056990478 1.0880001 5.52113e-40
0.036208577 0.071168572 1.3110001 9.1841101e-41
0.17624286 0.059442859 1.095 9.1841101e-41
0.15526001 0.062315244 1.1090001 9.1841101e-41
0.16101429 0.062090475 1.105 9.1841101e-41
0.18755049 0.06113524 1.0880001 9.1841101e-41
0.065921903 0.075872391 1.3060001 4.5991316e-40
-0.26647714 0.069660001 1.161 4.5991316e-40
-0.23737715 0.065880001 1.098 9.1841101e-41
0.16897333 0.066119999 1.102 9.1841101e-41
-0.29301429 0.07187143 1.161 2.7587643e-40
0.15466666 0.069333337 1.12 9.1841101e-41
0.24076667 0.069233336 1.085 2.7587643e-40
-0.22482857 0.072154284 1.098 9.1841101e-41
-0.2136343 0.073337145 1.1160001 9.1841101e-41
0.081776194 0.086808577 1.3210001 2.7587643e-40
0.16006 0.073140003 1.113 9.1841101e-41
0.24557716 0.07149715 1.0880001 9.1841101e-41
-0.20938286 0.075462863 1.1160001 2.7587643e-40
0.24557716 0.073569521 1.0880001 2.7587643e-40
-0.26335526 0.080439053 1.1570001 2.7587643e-40
0.24350476 0.075641908 1.0880001 1.1960629e-39
0.2462543 0.075850479 1.0910001 1.1960629e-39
-0.29058 0.083500005 1.169 9.1841101e-41
-0.25519049 0.082142867 1.1500001 4.5991316e-40
0.081776194 0.094357148 1.3210001 1.0120262e-39
0.24417619 0.077928573 1.0910001 4.5991316e-40
-0.27437431 0.084846668 1.1570001 2.7587643e-40
0.096873343 0.096873343 1.3210001 9.1841101e-41
0.15890951 0.081033334 1.105 9.1841101e-41
0.2240057 0.078759998 1.074 1.9325713e-39
-0.24516 0.085320003 1.1340001 9.1841101e-41
0.15890951 0.083138093 1.105 2.7587643e-40
0.16417715 0.084702857 1.098 2.7587643e-40
0.16626857 0.086794287 1.098 2.7587643e-40
0.081776194 0.1094543 1.3210001 4.5991316e-40
0.16897333 0.091308571 1.102 4.5991316e-40
0.24557716 0.090148576 1.0880001 9.1841101e-41
-0.27532285 0.098408572 1.161 9.1841101e-41
-0.27532285 0.10062 1.161 2.7587643e-40
0.16687429 0.095506661 1.102 9.1841101e-41
0.084611431 0.11744572 1.3260001 9.1841101e-41
0.23576097 0.09574572 1.0810001 9.1841101e-41
-0.22353047 0.10160477 1.123 9.1841101e-41
-0.20526192 0.10540477 1.1650001 9.1841101e-41
0.011408572 0.12042382 1.3310001 1.6563348e-39
0.013839048 0.11951905 1.3210001 1.8403701e-39
0.016417144 0.11997144 1.3260001 1.8403701e-39
0.061180007 0.11861429 1.3110001 2.3924845e-39
0.084611431 0.11997144 1.3260001 9.1841101e-41
0.23576097 0.09780477 1.0810001 9.1841101e-41
-0.20526192 0.10762382 1.1650001 9.1841101e-41
0.21991429 0.099217147 1.074 9.2018506e-40
0.23370193 0.09986382 1.0810001 9.1841101e-41
0.19458002 0.10192287 1.0810001 9.1841101e-41
-0.19706 0.11244667 1.169 5.52113e-40
0.023903811 0.12706763 1.3210001 2.3002833e-39
0.061180007 0.12610573 1.3110001 4.1406548e-39
0.089324765 0.12958381 1.3210001 2.7587643e-40
0.22689335 0.10574667 1.0780001 9.1841101e-41
0.23999999 0.112 1.12 9.1841101e-41
0.069195241 0.13461621 1.3210001 3.3126696e-39
0.16791524 0.11443905 1.123 9.1841101e-41
0.081776194 0.13713239 1.3210001 5.52113e-40
0.084292382 0.13713239 1.3210001 5.52113e-40
0.17386666 0.11626667 1.12 9.1841101e-41
0.22421429 0.11367143 1.095 9.1841101e-41
0.011502857 0.14186858 1.342 9.1841101e-41
0.069195241 0.13964859 1.3210001 2.3002833e-39
0.15935905 0.11871714 1.123 1.8403701e-39
0.17702 0.11766001 1.113 1.0120262e-39
0.17914 0.11766001 1.113 9.1841101e-41
0.19206285 0.11649714 1.102 9.1841101e-41
-0.087509535 0.1163362 1.0810001 2.7587643e-40
0.17537144 0.12010287 1.1160001 7.3614833e-40
0.16474287 0.12222858 1.1160001 9.1841101e-41
0.19584 0.11916191 1.0880001 7.3614833e-40
0.22070859 0.11916191 1.0880001 9.1841101e-41
0.22692001 0.12025715 1.098 9.1841101e-41
0.19084287 0.12201429 1.095 2.7587643e-40
0.2298457 0.12279429 1.102 2.7587643e-40
0.082395241 0.15084668 1.3310001 2.7587643e-40
0.19609334 0.12217335 1.0780001 2.7587643e-40
-0.11322001 0.12342001 1.0710001 9.1841101e-41
0.16101429 0.1273381 1.105 9.1841101e-41
-0.094594292 0.12510858 1.0680001 9.1841101e-41
0.16522381 0.12944287 1.105 9.1841101e-41
0.17736953 0.12909143 1.102 7.3614833e-40
0.21991429 0.12581143 1.074 9.1841101e-41
-0.64300478 0.13365239 1.105 9.1841101e-41
-0.10580001 0.12796763 1.0580001 4.5991316e-40
-0.074460007 0.12954001 1.0710001 9.1841101e-41
0.24244 0.13328952 1.102 9.1841101e-41
0.19278002 0.13158001 1.0710001 9.1841101e-41
0.24156001 0.13489716 1.098 9.1841101e-41
-0.10148096 0.1316238 1.0550001 9.1841101e-41
-0.095452383 0.1316238 1.0550001 9.1841101e-41
0.24298573 0.13661429 1.095 2.7587643e-40
-0.21487333 0.14807333 1.169 9.1841101e-41
-0.091693342 0.13401334 1.0580001 9.1841101e-41
0.17144287 0.13819334 1.0910001 9.1841101e-41
0.18870002 0.13566001 1.0710001 9.1841101e-41
0.24696666 0.13743334 1.085 9.1841101e-41
0.19020572 0.13731429 1.0680001 4.5991316e-40
0.17398953 0.14104478 1.0810001 9.1841101e-41
0.21321049 0.14045621 1.0610001 9.2018506e-40
0.20714764 0.14247715 1.0610001 9.1841101e-41
-0.079053335 0.14681333 1.0780001 9.1841101e-41
0.17559905 0.14858383 1.0910001 9.1841101e-41
0.20367999 0.14490667 1.064 9.1841101e-41
0.21321049 0.14449811 1.0610001 9.1841101e-41
0.23766002 0.14586002 1.0710001 4.5991316e-40
-0.08110667 0.14886668 1.0780001 9.1841101e-41
0.17574762 0.15259524 1.105 9.1841101e-41
0.21381333 0.14693333 1.064 9.1841101e-41
-0.097533338 0.15092 1.0780001 9.1841101e-41
-0.087509535 0.15339907 1.0810001 9.1841101e-41
0.22478858 0.1515543 1.0680001 1.6563348e-39
-0.11697143 0.15358858 1.0680001 9.1841101e-41
-0.087266669 0.15502667 1.0780001 9.1841101e-41
0.15890951 0.15890951 1.105 5.52113e-40
0.18428478 0.15545811 1.0810001 4.5991316e-40
0.22338003 0.15402001 1.0710001 9.1841101e-41
0.25293523 0.15847808 1.102 9.1841101e-41
0.19686002 0.15606003 1.0710001 9.1841101e-41
0.24663809 0.16057715 1.102 9.1841101e-41
0.25362381 0.16101429 1.105 9.1841101e-41
0.15198858 0.16474287 1.1160001 9.1841101e-41
0.15680477 0.16311905 1.105 4.5991316e-40
0.20354857 0.16058856 1.074 9.1841101e-41
0.25713333 0.16477522 1.102 9.1841101e-41
0.2534143 0.1658143 1.095 2.7587643e-40
0.24507144 0.1679 1.095 9.1841101e-41
-0.46079525 0.16222382 1.0450001 9.1841101e-41
0.23314287 0.16889906 1.0880001 9.1841101e-41
-0.077500001 0.17050001 1.085 9.1841101e-41
0.23794192 0.17144287 1.0910001 9.1841101e-41
-0.081332393 0.17193048 1.0810001 9.1841101e-41
0.24002001 0.17352095 1.0910001 9.1841101e-41
0.1679 0.17624286 1.095 2.7587643e-40
0.18870002 0.17238002 1.0710001 9.1841101e-41
0.2069343 0.17810763 1.0810001 9.1841101e-41
0.21726002 0.17646001 1.0710001 2.7587643e-40
-0.58656001 0.16800001 1.008 2.7587643e-40
-0.47308576 0.17000002 1.0200001 9.1841101e-41
0.36999431 0.24557143 1.146 9.1841101e-41
0.38527429 0.24557143 1.146 9.1841101e-41
0.39182284 0.24557143 1.146 9.1841101e-41
0.40195242 0.24642859 1.1500001 9.1841101e-41
0.28825715 0.22181143 1.026 9.1841101e-41
0.40273717 0.24775428 1.146 9.1841101e-41
0.40633336 0.25080955 1.1500001 9.1841101e-41
0.40785718 0.24906476 1.1420001 9.1841101e-41
0.3583762 0.2563 1.1650001 9.1841101e-41
0.27767143 0.23090571 1.023 9.1841101e-41
0.42238286 0.26303428 1.146 9.1841101e-41
0.39915624 0.26429144 1.1420001 9.1841101e-41
0.36947146 0.27183336 1.1650001 5.52113e-40
0.42960954 0.26646668 1.1420001 9.1841101e-41
0.38543144 0.2734257 1.153 9.1841101e-41
0.37574953 0.27878192 1.1570001 2.8527564e-39
0.43408859 0.27251714 1.131 4.5991316e-40
0.44266665 0.27200001 1.12 2.7587643e-40
0.43524 0.28836 1.1340001 9.1841101e-41
0.042466667 0.23313335 0.91000003 2.7587643e-40
0.046286669 0.23492669 0.91700006 2.7587643e-40
0.048033334 0.23492669 0.91700006 2.7587643e-40
0.049780004 0.23492669 0.91700006 2.7587643e-40
0.038914286 0.23608002 0.90800005 9.1841101e-41
0.34015906 0.31926194 1.2190001 9.1841101e-41
0.34015906 0.32158384 1.2190001 9.1841101e-41
0.35174003 0.32369432 1.2270001 4.5991316e-40
0.43408859 0.29836857 1.131 5.52113e-40
0.32720193 0.32257715 1.2140001 2.7587643e-40
0.34480289 0.32390574 1.2190001 4.5991316e-40
0.43624288 0.30052286 1.131 9.1841101e-41
0.31920955 0.32381904 1.21 9.1841101e-41
0.32842857 0.32612383 1.21 9.1841101e-41
0.29297999 0.3249 1.197 9.1841101e-41
0.27014953 0.32395524 1.177 2.7587643e-40
0.3494029 0.34239146 1.2270001 9.2018506e-40
0.23250191 0.32726574 1.1570001 7.3614833e-40
0.31938857 0.33999431 1.202 9.1841101e-41
0.40439907 0.32946953 1.1570001 4.5991316e-40
0.20773524 0.32737336 1.1420001 9.1841101e-41
0.18783335 0.32736668 1.1270001 9.1841101e-41
0.16577619 0.32834381 1.123 9.1841101e-41
-0.16146001 0.24102001 0.81900007 6.4412982e-39
0.15893334 0.33173335 1.12 9.1841101e-41
0.24926761 0.34150761 1.153 9.1841101e-41
0.24352098 0.3448962 1.1570001 9.1841101e-41
0.41365144 0.34161714 1.146 9.1841101e-41
0.14838572 0.33149999 1.105 9.1841101e-41
0.22948764 0.34260002 1.1420001 9.1841101e-41
0.14798287 0.33269903 1.102 9.1841101e-41
0.23911335 0.34930381 1.1570001 9.1841101e-41
0.13403715 0.33145621 1.0910001 9.1841101e-41
0.13159619 0.33261716 1.0880001 9.1841101e-41
0.20000096 0.34331715 1.123 9.1841101e-41
0.21492001 0.34668002 1.1340001 9.1841101e-41
0.12296667 0.33376667 1.085 9.1841101e-41
0.20358001 0.34791717 1.131 9.1841101e-41
0.37349999 0.38298571 1.245 9.1841101e-41
0.37200001 0.38380951 1.24 9.1841101e-41
0.3767238 0.38380951 1.24 9.1841101e-41
0.4245657 0.3547143 1.146 9.1841101e-41
0.42604765 0.35814288 1.1500001 9.1841101e-41
0.085647628 0.33352193 1.0580001 9.1841101e-41
0.37470001 0.3937324 1.2490001 2.7587643e-40
0.42823812 0.36471432 1.1500001 9.1841101e-41
0.14610286 0.3471238 1.0880001 9.1841101e-41
0.42823812 0.36909527 1.1500001 9.1841101e-41
-0.30133715 0.24149714 0.74800003 9.2018548e-39
0.36518383 0.40324858 1.2490001 9.1841101e-41
0.42674857 0.36999431 1.146 9.1841101e-41
0.35782856 0.40270475 1.24 9.1841101e-41
0.43178478 0.37087813 1.1420001 2.7587643e-40
0.11493715 0.34888002 1.0680001 9.1841101e-41
0.1173 0.34986001 1.0710001 9.1841101e-41
0.34144002 0.40480003 1.2320001 9.1841101e-41
0.043982856 0.35493144 1.074 5.52113e-40
0.062520005 0.34435618 1.0420001 5.52113e-40
0.11526 0.35394001 1.0710001 2.7587643e-40
0.31229523 0.39987621 1.21 2.7587643e-40
0.043982856 0.35697713 1.074 2.3002833e-39
0.30768573 0.40218097 1.21 9.1841101e-41
0.30538097 0.40448573 1.21 9.1841101e-41
0.42823812 0.38442859 1.1500001 9.1841101e-41
0.27743334 0.39973047 1.189 9.1841101e-41
0.05526191 0.3566905 1.0550001 1.1960629e-39
0.29748002 0.40774289 1.2060001 9.1841101e-41
0.066489525 0.35428002 1.0420001 9.1841101e-41
0.068474285 0.3562648 1.0420001 9.1841101e-41
0.043982856 0.37129715 1.074 9.1841101e-41
0.24912286 0.40552288 1.1730001 2.7587643e-40
0.24465431 0.40775719 1.1730001 1.1960629e-39
-0.41309619 0.24839331 0.70300001 1.1960629e-39
0.055733334 0.37594667 1.064 4.5991316e-40
-0.41711333 0.24973238 0.70300001 9.1841101e-41
0.053908575 0.38346288 1.0680001 5.52113e-40
0.043982856 0.38766286 1.074 2.7587643e-40
0.19833714 0.41293141 1.138 9.1841101e-41
0.055942863 0.38956574 1.0680001 2.7587643e-40
0.13661429 0.40775716 1.095 9.1841101e-41
0.042093333 0.40348002 1.0780001 9.1841101e-41
0.057271428 0.39487144 1.0550001 2.7587643e-40
0.12988096 0.40834573 1.0910001 2.7587643e-40
0.052020006 0.41106004 1.0710001 9.1841101e-41
0.048253335 0.41580003 1.0780001 1.1960629e-39
0.052165713 0.41425714 1.074 2.7587643e-40
0.1163362 0.41695717 1.0810001 2.7587643e-40
0.42423338 0.44627145 1.1570001 2.7587643e-40
0.059280954 0.40893814 1.0550001 9.1841101e-41
0.05421143 0.41834855 1.074 2.7587643e-40
0.061116192 0.41178286 1.052 2.7587643e-40
0.056257144 0.42448571 1.074 2.7587643e-40
0.052360002 0.42812002 1.0780001 4.5991316e-40
0.057977144 0.4261829 1.0680001 9.1841101e-41
0.052360002 0.43428001 1.0780001 2.7587643e-40
0.052360002 0.45070669 1.0780001 1.0120262e-39
0.050446671 0.45402002 1.0810001 9.1841101e-41
0.052360002 0.45276004 1.0780001 5.52113e-40
0.050633334 0.45776668 1.085 2.7587643e-40
0.050633334 0.45983335 1.085 9.1841101e-41
