# .PCD v0.7 - Point Cloud Data file format
VERSION 0.7
FIELDS x y z rgb
SIZE 4 4 4 4
TYPE F F F F
COUNT 1 1 1 1
WIDTH 617
HEIGHT 1
VIEWPOINT 0 0 0 1 0 0 0
POINTS 617
DATA ascii
-0.20892262 -0.099785477 1.1058028 0
-0.24735594 -0.10263157 1.1129885 0
-0.19255733 -0.086502552 1.1099863 0
-0.25580788 -0.088162422 1.1168106 0
-0.20727205 -0.082215428 1.1100481 0
-0.238482 -0.066004217 1.1035746 0
-0.18366432 -0.07632485 1.1324129 0
-0.22778285 -0.060733318 1.1108617 0
-0.66991043 -0.065963238 1.1413281 0
-0.66988969 -0.065384001 1.1414267 0
-0.66431403 -0.060841709 1.167511 0
-0.18353558 -0.045555621 1.1238217 0
-0.66889143 -0.033973694 1.1723571 0
-0.17695236 -0.032354116 1.1342669 0
-0.68449545 -0.032671928 1.1403713 0
-0.24169922 -0.036382675 1.1186447 0
-0.21493435 -0.030889511 1.1288414 0
-0.20824003 -0.035126459 1.1029034 0
-0.17712021 -0.032439709 1.1339893 0
-0.67556047 -0.025911927 1.15238 0
-0.16381741 -0.016415358 1.1762266 0
-0.28891754 -0.016799927 1.0991459 0
-0.22859073 -0.031184912 1.1045604 0
-0.19527054 -0.021793365 1.110496 0
-0.26972198 -0.01722908 1.0878448 0
-0.2624712 -0.01044184 1.0692774 0
-0.24924088 -0.0010557175 1.0608046 0
-0.24403691 -0.0076692477 1.1625571 0
-0.19458389 -0.011405945 1.1486206 0
-0.21622086 -0.029909134 1.1292391 0
-0.21934098 -0.0072912052 1.1672314 0
-0.1634388 -0.016991317 1.176651 0
-0.24428487 -0.0081243366 1.1628001 0
-0.31198597 -0.0088224411 1.1385976 0
-0.24919176 -0.0011703968 1.0607667 0
-0.31066895 0.0096594095 1.1500511 0
-0.19801021 0.016200542 1.1657152 0
-0.19216132 0.0068885088 1.1407663 0
-0.16441607 0.0025609434 1.1731102 0
-0.26646405 0.0059701502 1.065273 0
-0.23753792 0.0098074973 1.1265786 0
-0.21911621 0.0062376261 1.1086798 0
-0.20242119 0.011230469 1.0957036 0
-0.24036598 0.012107372 1.0693133 0
-0.3283062 0.012759209 1.1662922 0
-0.29025173 0.0086750463 1.1290185 0
0.20123339 0.0092818737 1.1217427 0
0.1780591 0.02990818 1.1199517 0
-0.19884872 0.026359558 1.0940285 0
-0.19096756 0.019274354 1.1808729 0
0.22532225 0.016301394 1.1167226 0
-0.20243454 0.011235237 1.0957096 0
-0.23395729 0.025817156 1.0774937 0
0.25182509 0.040752113 1.1147541 0
0.23250866 0.018045902 1.1190648 0
-0.1679278 0.028657436 1.1749591 0
0.12976265 0.032085419 1.1406269 0
-0.27108523 0.033297747 1.1381377 0
-0.19476604 0.037370682 1.0876551 0
0.17870665 0.030547857 1.119494 0
-0.32204819 0.036693573 1.1494083 0
-0.25187325 0.039805174 1.1054069 0
0.14513469 0.040375352 1.1401217 0
0.19724751 0.037015438 1.0932406 0
0.21165025 0.035595268 1.0921735 0
-0.18144035 0.036728144 1.1624639 0
-0.22520638 0.038814545 1.1048856 0
0.28252149 0.048354805 1.1157869 0
-0.1943121 0.037394047 1.0875263 0
0.16790295 0.050252736 1.1039994 0
0.24154663 0.05259037 1.0892525 0
-0.1838541 0.044016838 1.1241509 0
-0.27865887 0.049733639 1.157943 0
0.28173065 0.048190713 1.1164346 0
-0.30622864 0.04395771 1.1323581 0
0.051203325 0.065167673 1.379253 0
0.07079792 0.057228088 1.3674287 0
0.2145533 0.047724161 1.0869293 0
0.28252161 0.048354805 1.1157869 0
0.023906708 0.06470108 1.3773918 0
0.15353632 0.055872917 1.106957 0
0.25592813 0.056804117 1.0941091 0
-0.17071247 0.055809021 1.1339631 0
-0.22034836 0.058738708 1.0939693 0
0.041027069 0.069820404 1.3057995 0
0.041068077 0.09028244 1.306277 0
-0.19634151 0.060138315 1.1079606 0
-0.18369579 0.066016674 1.1119618 0
0.09526062 0.074490547 1.3213193 0
-0.28806019 0.065146506 1.1560149 0
-0.25020576 0.058264375 1.1046338 0
0.22371674 0.055768728 1.0787511 0
-0.28774452 0.064930201 1.1559567 0
0.01714325 0.075734138 1.3183937 0
-0.23719788 0.06787239 1.0962467 0
0.042821884 0.093241692 1.3070638 0
0.22657967 0.077528954 1.0745652 0
-0.26495767 0.075920701 1.1613144 0
0.033979416 0.083256483 1.3069525 0
0.19933701 0.074762195 1.0722302 0
-0.21714211 0.068009973 1.0946374 0
0.085809708 0.07430613 1.3190494 0
0.17388344 0.067507505 1.0923657 0
-0.23163414 0.094148517 1.1220589 0
-0.18067193 0.078377724 1.1191235 0
-0.20505619 0.071256161 1.1149724 0
0.042114258 0.094438076 1.3075794 0
-0.28563976 0.079721451 1.1658535 0
-0.19954205 0.08137846 1.1202989 0
0.17057228 0.086386681 1.0952044 0
0.2466135 0.082180023 1.0911469 0
0.0091080666 0.11377668 1.3369923 0
0.16933632 0.086770177 1.0967703 0
-0.27881622 0.10140467 1.164547 0
0.04181385 0.1039609 1.3122056 0
-0.20627928 0.092970371 1.1135221 0
0.17652893 0.09185791 1.0910883 0
-0.24297333 0.092057228 1.1333199 0
-0.23135757 0.093924522 1.1217556 0
0.013277054 0.1276474 1.3290634 0
0.066776156 0.10692966 1.3047912 0
0.20919704 0.089689612 1.0737722 0
-0.26958656 0.10759163 1.1547394 0
0.030252934 0.12393594 1.3107134 0
0.06997776 0.13328838 1.3198562 0
-0.21096945 0.10657305 1.1633339 0
0.20577216 0.12175009 1.0726652 0
0.21885884 0.10377721 1.0722263 0
-0.2159524 0.1270321 1.1536456 0
0.10053253 0.14051282 1.3310044 0
0.061947823 0.12275553 1.3109621 0
0.20377707 0.12030268 1.0737054 0
0.22791243 0.11996686 1.1020055 0
0.25160003 0.12988141 1.1030469 0
0.027137756 0.14702892 1.3236933 0
0.071250916 0.14727759 1.3216057 0
-0.19072652 0.13058692 1.1768394 0
0.19493103 0.11570841 1.1007729 0
0.21417236 0.1252442 1.0722123 0
-0.26432323 0.14205694 1.1650137 0
0.23208427 0.1203562 1.1051986 0
-0.65621853 0.14869785 1.1098357 0
-0.079733372 0.13550341 1.0689563 0
0.16201019 0.13661146 1.0994987 0
0.17417336 0.13644361 1.0818844 0
-0.10044765 0.13056654 1.054644 0
0.24464512 0.14071703 1.0832729 0
-0.21235323 0.15052187 1.1714078 0
0.1918354 0.14417225 1.0642035 0
0.21325731 0.1403321 1.0617394 0
-0.085519791 0.13420933 1.0557024 0
-0.65604973 0.1488111 1.1098449 0
-0.26611996 0.15854862 1.1716967 0
0.23203707 0.14479303 1.0646086 0
0.24492264 0.14109743 1.0834951 0
-0.11172047 0.1440177 1.066644 0
0.23203754 0.14479375 1.0646091 0
0.15323257 0.16225672 1.1129274 0
0.24485588 0.15788651 1.1022406 0
0.19142628 0.16159555 1.0754611 0
0.16427088 0.14942774 1.1080384 0
0.1914264 0.1615957 1.0754611 0
-0.44371796 0.16583295 1.0396302 0
-0.1132853 0.177948 1.0722464 0
-0.081979752 0.16731834 1.0786092 0
0.21411848 0.16436 1.0754887 0
-0.6252594 0.1784296 1.0957642 0
-0.6252594 0.1784296 1.0957642 0
-0.6252594 0.1784296 1.0957642 0
-0.6252594 0.1784296 1.0957642 0
-0.45396018 0.16618997 1.0428141 0
0.24415207 0.16957188 1.0936637 0
-0.57444942 0.1679718 1.0104064 0
0.24303818 0.16928673 1.0932984 0
-0.57444942 0.1679718 1.0104064 0
0.18167567 0.17550826 1.0704677 0
-0.53504324 0.17293686 0.98568118 0
-0.53504324 0.17293686 0.98568118 0
-0.53504324 0.17293686 0.98568118 0
0.44804764 0.21335936 1.0981159 0
0.33063126 0.21230578 1.0468493 0
0.38216209 0.21693969 1.0701499 0
0.42073059 0.21510696 1.086113 0
0.38923264 0.21624374 1.0714512 0
0.40216446 0.21828842 1.0763607 0
0.33063126 0.21230578 1.0468493 0
0.29138184 0.22121525 1.0262671 0
0.3786602 0.25268388 1.1489277 0
0.2727499 0.22812939 1.022356 0
0.40243268 0.24836111 1.1476575 0
0.24013519 0.23165894 1.0058022 0
0.40843165 0.24207696 1.1525111 0
0.22336197 0.21846378 0.99768639 0
0.1787014 0.21933842 0.97832251 0
0.18823051 0.21412849 0.98003387 0
0.32956314 0.30606866 1.3280747 0
0.28028488 0.30653393 1.3013606 0
0.15449524 0.22473526 0.96662521 0
0.14172363 0.21800613 0.95754242 0
0.14059448 0.22284317 0.95739174 0
0.22268677 0.30568743 1.2878199 0
0.26847363 0.30580044 1.3040848 0
0.24200249 0.31355882 1.2823172 0
0.30122495 0.31148088 1.3060573 0
0.31987333 0.31493089 1.2873802 0
0.10278702 0.22566926 0.94365883 0
0.37624741 0.27269173 1.158392 0
0.14396858 0.31604624 1.2266693 0
0.16195393 0.31176996 1.2594845 0
0.18891823 0.3130489 1.2583189 0
0.28360033 0.31543812 1.2743717 0
0.43483162 0.27348876 1.1289067 0
0.059375763 0.22934723 0.91810703 0
0.21494389 0.31405294 1.2648953 0
0.22220421 0.31430292 1.277458 0
0.31392074 0.31698006 1.2784499 0
0.34959191 0.31789404 1.2781887 0
0.045796394 0.22651386 0.91591454 0
0.13829494 0.31215695 1.2391739 0
0.24117661 0.31400657 1.2816219 0
0.23105621 0.31517398 1.2365947 0
0.28302073 0.31405157 1.2505552 0
0.37507629 0.31058884 1.1589165 0
0.17974827 0.31714436 1.227976 0
0.19931221 0.31361991 1.2377932 0
0.21088839 0.31413269 1.2446096 0
0.32782364 0.31551355 1.2595215 0
0.0059967041 0.22736359 0.89603424 0
0.084208488 0.31430894 1.2264169 0
0.17968133 0.31709379 1.2285022 0
0.30181503 0.31884778 1.2346087 0
0.086079597 0.31613344 1.2129202 0
0.11102533 0.31605604 1.22403 0
0.24082327 0.31697249 1.2324624 0
0.25908279 0.31811887 1.2380426 0
0.20442247 0.31758681 1.2240491 0
0.35658646 0.32819307 1.2263603 0
0.43608379 0.29037809 1.1314149 0
-0.022594452 0.20837402 0.87732124 0
0.11600816 0.31712323 1.2087371 0
0.17771125 0.31614521 1.2003951 0
0.18457115 0.3194626 1.2179613 0
0.21754003 0.31959194 1.2282932 0
0.23904085 0.31696221 1.2308161 0
0.26185131 0.31763133 1.216646 0
0.30929947 0.32222891 1.2241949 0
-0.010792434 0.31431395 1.1885535 0
0.054245949 0.31551972 1.1983505 0
0.1916213 0.32290635 1.1784346 0
-0.13935471 0.25315857 0.82806015 0
0.020336151 0.31628549 1.1861753 0
0.27707577 0.31574321 1.2306881 0
0.3388195 0.32496357 1.2126617 0
-0.0038809776 0.3201009 1.1655316 0
0.029636383 0.3176465 1.1938248 0
0.18517828 0.32028583 1.1908278 0
0.371418 0.32822812 1.2338734 0
0.40780258 0.29931355 1.1481905 0
0.020042419 0.31614846 1.1862478 0
0.32358551 0.32758808 1.201973 0
-0.071105957 0.2302742 0.85944366 0
0.23846006 0.32388756 1.1942919 0
-0.018163204 0.31810009 1.1613657 0
0.056780815 0.32047617 1.1676776 0
0.073557377 0.32277969 1.1764358 0
0.094151497 0.32104403 1.1863641 0
0.09469986 0.32062808 1.1878085 0
0.16039276 0.32215643 1.1606827 0
0.16594422 0.32019541 1.1935725 0
0.21923876 0.32138675 1.17 0
0.27141571 0.32911372 1.1673489 0
0.31662941 0.32742649 1.1965237 0
0.43667221 0.31024784 1.1282043 0
-0.18507767 0.23416519 0.80593491 0
-0.019266129 0.31785536 1.1617818 0
0.18458962 0.32584202 1.1669776 0
0.31774902 0.32759202 1.197155 0
0.34117508 0.32326818 1.2155132 0
-0.095046997 0.22515821 0.84883499 0
-0.1054306 0.36584854 1.2890778 0
0.06166935 0.32130253 1.1619624 0
0.078773022 0.3211925 1.1486826 0
0.33901215 0.32494068 1.2126827 0
0.25061607 0.32671311 1.1623354 0
-0.13751221 0.25305176 0.8293457 0
-0.12428284 0.37127686 1.3128204 0
-0.070877075 0.34441948 1.2361851 0
-0.037555695 0.33087254 1.1781197 0
-0.0075101852 0.32697487 1.1441059 0
0.049452782 0.32114291 1.1397772 0
0.06288147 0.32137746 1.1628954 0
0.11233926 0.32472113 1.1486464 0
0.1269989 0.32261294 1.1577659 0
0.16183662 0.3230806 1.1576633 0
0.17334747 0.32541704 1.1573811 0
0.27110291 0.32913733 1.1671982 0
0.37148094 0.32812083 1.2339649 0
-0.14358521 0.39822006 1.3465881 0
-0.11328125 0.36860466 1.3020363 0
-0.09552002 0.36353302 1.2714005 0
-0.095359802 0.36325073 1.2711449 0
-0.0073223114 0.32739854 1.1435003 0
-0.0073223114 0.32739854 1.1435003 0
-0.12434769 0.41402817 1.321167 0
0.0023480356 0.32414579 1.1569071 0
0.12147617 0.32467413 1.1363325 0
-0.15214062 0.25084257 0.82040119 0
-0.15974045 0.38870132 1.3708763 0
-0.046070099 0.34352899 1.2004166 0
0.15556431 0.32670087 1.1282601 0
0.41324043 0.32817554 1.1481094 0
0.42887211 0.36140823 1.1478605 0
-0.16302109 0.24385834 0.81899261 0
-0.22240829 0.42688656 1.4639511 0
-0.0073223114 0.32739854 1.1435003 0
0.060094357 0.32450706 1.1313152 0
-0.20566416 0.42382526 1.4424157 0
-0.19673634 0.41821814 1.4247684 0
-0.17978859 0.40549278 1.3973389 0
-0.17798805 0.40037537 1.3953018 0
-0.13656998 0.38418198 1.33675 0
-0.12187195 0.37683678 1.3107491 0
0.14515802 0.32684001 1.1235397 0
0.29271698 0.33165646 1.1809921 0
0.33967209 0.35630989 1.2242031 0
-0.1967864 0.41711569 1.4248862 0
0.014083862 0.3274498 1.1092033 0
0.0645051 0.32548273 1.1112924 0
-0.18429565 0.23553276 0.80651474 0
-0.063123703 0.36085165 1.2246876 0
0.1960144 0.33326995 1.1175308 0
0.30901337 0.35666561 1.2050858 0
0.32592773 0.3629818 1.2175293 0
-0.10528564 0.38549137 1.2878265 0
0.086754799 0.32994351 1.1165119 0
0.12921649 0.33124712 1.1147282 0
0.14706278 0.32997981 1.1131577 0
0.17384851 0.33082864 1.1262484 0
0.27423096 0.35207009 1.1800537 0
-0.27211761 0.22980309 0.76022673 0
-0.19549561 0.2387085 0.80303764 0
-0.02162838 0.32006216 1.1617365 0
0.17468452 0.33396959 1.1039944 0
-0.29576111 0.23738289 0.75242996 0
-0.193573 0.24920654 0.80665588 0
-0.19042969 0.43078613 1.4144592 0
0.021999359 0.3332653 1.0967674 0
0.089737415 0.32868797 1.0924131 0
-0.16772461 0.4166069 1.3860207 0
-0.11214828 0.38862324 1.294302 0
-0.045742035 0.36365891 1.2059479 0
-0.032663345 0.36115539 1.1774292 0
0.20836067 0.33216333 1.1314406 0
0.22150421 0.33464479 1.1341944 0
0.2215023 0.3346442 1.1341958 0
0.29682159 0.35580158 1.1938591 0
0.33580017 0.36811924 1.2259693 0
-0.23661804 0.23412263 0.78190994 0
0.013645172 0.32764149 1.109333 0
0.36066723 0.37488174 1.2386804 0
-0.22030258 0.4471699 1.4649429 0
0.034754753 0.33081031 1.0812416 0
-0.23658562 0.23468518 0.78199673 0
-0.060935974 0.38123447 1.2301044 0
0.26531982 0.35561752 1.1754723 0
-0.20329666 0.44039917 1.4375496 0
-0.16487122 0.42586517 1.3851204 0
-0.17279053 0.40808678 1.3912811 0
-0.066375732 0.38056922 1.2363739 0
-0.020065308 0.33960629 1.1599655 0
0.043628693 0.33234286 1.0735531 0
0.072471857 0.33103925 1.0678701 0
0.25206757 0.3536582 1.1652794 0
0.4272213 0.36307836 1.1496744 0
-0.17723465 0.44370079 1.4019241 0
0.16313362 0.3348763 1.0999589 0
0.36032009 0.37402582 1.2386665 0
-0.2661438 0.24089432 0.76785469 0
-0.13545418 0.41946983 1.3327827 0
-0.10193634 0.41202927 1.2900696 0
-0.0098457336 0.3606987 1.1464539 0
0.27301788 0.36882114 1.1799088 0
-0.27219963 0.22981739 0.76018715 0
-0.19440079 0.44944191 1.4307556 0
0.30646133 0.38204861 1.2054749 0
0.34454346 0.39163446 1.2293968 0
-0.20639038 0.45632935 1.4456177 0
-0.07094574 0.39230537 1.2423096 0
0.13667679 0.33800209 1.079217 0
0.22635269 0.36481631 1.147562 0
0.29730225 0.37671471 1.1963558 0
0.34475708 0.39193058 1.2294731 0
-0.38357925 0.24425316 0.7180357 0
-0.044624329 0.37783241 1.2012405 0
0.15275574 0.33806396 1.090641 0
-0.39001465 0.22550869 0.71179581 0
-0.016025543 0.36804581 1.1606903 0
0.19084406 0.364856 1.129879 0
0.42731667 0.36288738 1.1495237 0
-0.30388641 0.24236679 0.74977112 0
-0.10026169 0.43173981 1.287117 0
0.25017929 0.36642838 1.1623383 0
-0.42009354 0.2399025 0.70213509 0
-0.15441895 0.43884277 1.3684692 0
0.091367722 0.33993125 1.0488229 0
0.10339928 0.3381207 1.0616407 0
-0.2016716 0.46767461 1.4415054 0
-0.13398743 0.44019699 1.3422623 0
0.011734009 0.37179947 1.1201324 0
0.043712616 0.33315277 1.0724983 0
0.1461525 0.35669756 1.0923233 0
-0.31577301 0.23677254 0.74339485 0
-0.23311615 0.47888565 1.4830017 0
-0.15341568 0.48307034 1.3711548 0
-0.029945374 0.39523315 1.1832085 0
0.0049667358 0.3758049 1.1319885 0
0.19604874 0.38524342 1.1311646 0
0.3612442 0.41219759 1.2475662 0
-0.14775848 0.44716263 1.3562164 0
0.02709198 0.35949707 1.0980644 0
0.068318039 0.34028578 1.0372071 0
0.22929764 0.37918949 1.1527023 0
0.31371307 0.39816558 1.2124348 0
-0.35034943 0.23923492 0.72734928 0
-0.191082 0.477525 1.424942 0
-0.17937088 0.44926023 1.4072113 0
-0.10426331 0.43418121 1.2907639 0
0.21100807 0.37811613 1.1435223 0
0.27418137 0.38967991 1.1825657 0
-0.21135139 0.48530769 1.4474068 0
-0.089532852 0.42241287 1.2711887 0
-0.090293884 0.40590668 1.2691765 0
0.33059692 0.40681267 1.2253208 0
0.42650509 0.37693048 1.1458871 0
-0.13367653 0.46160126 1.3442268 0
-0.117383 0.44469738 1.3099995 0
0.3279953 0.41101775 1.2234974 0
-0.10062408 0.43337631 1.2873478 0
0.039159775 0.36834696 1.0790892 0
0.17143631 0.37584686 1.1140404 0
0.29513645 0.40663436 1.2062378 0
-0.22478485 0.50465584 1.4724045 0
-0.17740631 0.47875977 1.406601 0
-0.07460022 0.4284668 1.2520599 0
0.051058769 0.36474618 1.0706921 0
0.37017822 0.42408133 1.2529221 0
0.12922859 0.36816597 1.0866652 0
-0.39359665 0.24150467 0.71200275 0
-0.17741394 0.47874451 1.406601 0
-0.13373756 0.46194839 1.3443451 0
-0.12516022 0.45523405 1.3302498 0
-0.11082077 0.45203829 1.3063889 0
-0.095249176 0.43754196 1.2752838 0
0.24562836 0.41176224 1.1727867 0
0.3168869 0.4148016 1.2119923 0
-0.064510345 0.42962456 1.2381554 0
-0.025533676 0.40569067 1.1745548 0
0.20332527 0.39181995 1.1347914 0
-0.14839554 0.47147751 1.3643608 0
0.0083389282 0.38804483 1.1252174 0
0.10113144 0.38433838 1.0706348 0
0.18645477 0.3871727 1.1229286 0
0.24584579 0.41223526 1.1732101 0
-0.42286682 0.25558472 0.70014191 0
-0.034118652 0.41323471 1.1836472 0
0.069268465 0.36088315 1.0441452 0
-0.045837402 0.4270916 1.2127991 0
-0.0086898804 0.41796207 1.1499329 0
0.32667542 0.43890381 1.2281113 0
-0.13432312 0.47775078 1.3455544 0
0.037958622 0.38136363 1.0763645 0
0.051594734 0.3737824 1.069025 0
0.27287292 0.41819763 1.1867294 0
0.35139465 0.42962116 1.2412338 0
-0.18931198 0.50094128 1.4210663 0
-0.11939621 0.46617126 1.3154469 0
-0.075717926 0.45065689 1.2593307 0
0.16008568 0.39501309 1.1136475 0
-0.22072887 0.51806974 1.4666891 0
-0.14912796 0.47242737 1.365303 0
0.12448311 0.3858816 1.0796547 0
0.20195961 0.40777063 1.138998 0
0.2171936 0.40889549 1.1527405 0
0.3520813 0.43094635 1.2417603 0
0.42160058 0.40985441 1.152391 0
-0.096586227 0.45228386 1.2833099 0
0.10136604 0.384058 1.0707436 0
-0.26025391 0.47753906 1.5634766 0
-0.21556568 0.53302383 1.4672637 0
-0.09057045 0.46013641 1.2751732 0
-0.06244278 0.44633102 1.2342987 0
-0.03276825 0.42365646 1.1847773 0
-0.13350677 0.49456406 1.342453 0
0.18484497 0.40985024 1.1308022 0
0.31143188 0.43826294 1.2130384 0
-0.067708969 0.45173597 1.2453499 0
0.29775238 0.44121933 1.208436 0
-0.19810867 0.53491211 1.4403839 0
-0.20354462 0.52122211 1.4482079 0
-0.16196823 0.50661898 1.3841476 0
-0.11506844 0.48833418 1.3165836 0
0.22019196 0.42457199 1.1521225 0
-0.095609665 0.47355291 1.2907124 0
0.019165039 0.40867615 1.1078606 0
0.31632996 0.4554038 1.2262154 0
-0.17913437 0.52055645 1.4033394 0
-0.040915489 0.4467268 1.1985989 0
-0.011007309 0.43488967 1.16259 0
0.21921539 0.42429647 1.1514664 0
0.29480743 0.45443249 1.2092896 0
0.34127235 0.46026611 1.2430401 0
0.1437149 0.41186714 1.1022606 0
0.17509365 0.41794682 1.1157522 0
0.20822906 0.42875051 1.1453857 0
0.28914261 0.44971848 1.2025986 0
0.33344269 0.45278549 1.2335587 0
0.42196989 0.4204483 1.1566839 0
-0.1157074 0.5118084 1.3213959 0
-0.16225433 0.50641918 1.3845711 0
-0.12818909 0.50478363 1.3419037 0
-0.0054969788 0.43083191 1.1493416 0
0.070255458 0.39642376 1.0479645 0
0.26159286 0.44272232 1.1824036 0
0.29483414 0.45263672 1.2089272 0
0.35525322 0.47245789 1.2503271 0
0.25 3 0.5 0
-0.025871277 0.45131111 1.179039 0
0.27015686 0.44562721 1.1901398 0
-0.13755417 0.50988102 1.3517303 0
-0.08357048 0.48299599 1.271328 0
0.02387619 0.42137623 1.1063614 0
0.050821304 0.40600765 1.0712404 0
-0.14392471 0.51593781 1.3628235 0
0.011917114 0.42867947 1.1312189 0
0.15682983 0.40788841 1.1079178 0
0.41929817 0.44126034 1.1569848 0
0.41930008 0.44125938 1.1569843 0
-0.16214752 0.50387144 1.3848267 0
-0.10066414 0.4955759 1.2915115 0
0.32518387 0.47727585 1.2292309 0
-0.075563431 0.4875536 1.2638206 0
-0.063363075 0.48394585 1.2466087 0
0.1193924 0.42167854 1.0864315 0
0.18307495 0.45060349 1.1329727 0
0.23708344 0.46051407 1.1693649 0
-0.15251732 0.50690842 1.3667679 0
-0.13042831 0.5253253 1.3437195 0
-0.093667984 0.49490261 1.285778 0
0.281147 0.46381092 1.1980057 0
-0.17868805 0.55935884 1.4128761 0
0.063920379 0.41296166 1.052054 0
0.14857101 0.42945528 1.1028233 0
0.35970116 0.4866488 1.2517147 0
-0.20924568 0.56826401 1.4598198 0
0.064685106 0.41497916 1.0519942 0
0.31026649 0.48161817 1.224926 0
0.36651611 0.48932028 1.256588 0
-0.20903015 0.57223415 1.4600315 0
-0.028343201 0.46941566 1.1892128 0
-0.013660431 0.4632225 1.1676979 0
0.21798706 0.4557333 1.1534538 0
0.272995 0.46980667 1.194458 0
0.34964371 0.50513506 1.2498169 0
-0.16385078 0.56080341 1.3931923 0
-0.04070282 0.47758675 1.2016373 0
0.15124512 0.45714855 1.1124611 0
-0.1852684 0.55282593 1.4243088 0
0.19417953 0.45516968 1.1415157 0
0.24625397 0.4675045 1.1797066 0
0.0031814575 0.45912361 1.1366692 0
-0.17910385 0.55627823 1.4137115 0
-0.10286331 0.52377701 1.3004913 0
0.10408401 0.4281559 1.0720234 0
-0.045853615 0.49499178 1.2187004 0
0.12920761 0.43705177 1.0911503 0
0.27268219 0.48414898 1.1960907 0
-0.18630791 0.58200836 1.430172 0
-0.084796906 0.5188055 1.2726402 0
-0.034000397 0.48254967 1.1946182 0
0.15167236 0.45746613 1.1129494 0
-0.22333074 0.60903108 1.485882 0
-0.13114166 0.54922581 1.3457432 0
0.071560502 0.42873597 1.0508298 0
0.17721939 0.46022987 1.1299486 0
0.26539612 0.48776817 1.1931648 0
0.31412506 0.50538635 1.2267303 0
-0.19728088 0.59522539 1.4497643 0
-0.12723923 0.54711533 1.3348007 0
0.21912193 0.47773361 1.1613388 0
0.31475067 0.50512695 1.2270317 0
0.37087059 0.49996185 1.2651978 0
-0.19574928 0.59114784 1.4475765 0
-0.13868618 0.56486559 1.3637619 0
0.051154137 0.44212115 1.0765343 0
0.1984024 0.47792816 1.14534 0
-0.10802078 0.54530907 1.3097115 0
-0.099098206 0.5356797 1.2963066 0
0.16533089 0.46361113 1.1214848 0
0.24934769 0.46659946 1.1813354 0
0.34215546 0.51445103 1.2487144 0
-0.21646881 0.60844994 1.4723663 0
-0.089622498 0.53714991 1.2873764 0
-0.062309265 0.51750374 1.2442322 0
-0.1806488 0.58278656 1.4179077 0
-0.15313911 0.57672632 1.3743973 0
-0.044136047 0.49557877 1.2167664 0
-0.029073715 0.49882126 1.185461 0
0.0046977997 0.48095322 1.1435814 0
0.11434555 0.45030975 1.0856676 0
-0.21646881 0.60844994 1.4723663 0
-0.16200256 0.57993698 1.3890533 0
0.089515686 0.44112396 1.0647964 0
0.20973301 0.49762726 1.155302 0
-0.11535645 0.5508728 1.3224487 0
0.21108437 0.50205851 1.1579781 0
-0.11546326 0.55194092 1.3226624 0
0.10911942 0.47186661 1.0872593 0
