# .PCD v0.7 - Point Cloud Data file format
VERSION 0.7
FIELDS x y z rgb
SIZE 4 4 4 4
TYPE F F F F
COUNT 1 1 1 1
WIDTH 891
HEIGHT 1
VIEWPOINT 0 0 0 1 0 0 0
POINTS 891
DATA ascii
-0.028992414 -0.17838874 -0.071352065 1.2594407e-038
-0.027166426 -0.17814416 -0.070530117 1.3429568e-038
-0.022064399 -0.17832115 -0.07032831 1.3062945e-038
-0.019577052 -0.17861192 -0.070527062 1.306403e-038
-0.017566759 -0.17916207 -0.070662387 1.297363e-038
-0.0071044117 -0.17874506 -0.070553295 1.3064401e-038
-0.03641082 -0.17636618 -0.070806012 2.0720607e-038
-0.034964096 -0.17666601 -0.070654094 2.0253139e-038
-0.032841742 -0.17664586 -0.070723668 1.4255049e-038
-0.031043103 -0.17661817 -0.07088308 1.2591889e-038
-0.029149363 -0.17688096 -0.071029559 1.185541e-038
-0.027075455 -0.1770709 -0.071032442 1.2317478e-038
-0.025249545 -0.17685299 -0.070627384 1.1859733e-038
-0.020294793 -0.17619607 -0.070435151 1.3065124e-038
-0.018977406 -0.17710496 -0.071127646 1.3066193e-038
-0.016653294 -0.17706032 -0.071155302 1.2972193e-038
-0.015098541 -0.1772531 -0.071105145 1.3064398e-038
-0.013838287 -0.17612077 -0.070700765 1.3064385e-038
-0.0084864348 -0.17650299 -0.070867464 1.2974356e-038
-0.0073191077 -0.17711574 -0.071092904 1.306619e-038
-0.0054762689 -0.17683826 -0.070955426 1.3158392e-038
-0.0038188398 -0.17747784 -0.071468472 1.3065832e-038
0.0045684278 -0.1760323 -0.070261002 1.3064034e-038
0.0068943789 -0.17637441 -0.071147576 1.2971119e-038
0.0088622216 -0.17655116 -0.071025319 1.2880356e-038
0.011922032 -0.176119 -0.07078521 1.3246986e-038
0.012736502 -0.1766378 -0.071039066 1.2878202e-038
0.01493137 -0.17717502 -0.070857853 1.2785652e-038
0.017133003 -0.17670199 -0.071079113 1.2786368e-038
0.018198229 -0.17627007 -0.071835153 1.3155503e-038
0.027994715 -0.17635508 -0.07124272 1.3064753e-038
0.02933507 -0.17673102 -0.070425391 1.3064753e-038
0.035046469 -0.17641976 -0.070113264 1.3064027e-038
0.038807694 -0.17612341 -0.070328429 1.3246976e-038
0.0523655 -0.17608753 -0.071952641 1.2967515e-038
-0.040292971 -0.17405921 -0.071039245 1.5917042e-038
-0.039061133 -0.17473173 -0.071006201 1.6186082e-038
-0.037041076 -0.17515862 -0.071091138 1.9976925e-038
-0.034660786 -0.17474975 -0.070854217 1.5085141e-038
-0.033009637 -0.175098 -0.07095769 1.3514935e-038
-0.031122014 -0.17505436 -0.071055122 1.1026009e-038
-0.029235937 -0.17513092 -0.070870414 1.0567913e-038
-0.027240027 -0.17548692 -0.07088954 1.0566117e-038
-0.020582844 -0.17531767 -0.070798002 1.3340982e-038
-0.017751247 -0.17519712 -0.071021363 1.3252032e-038
-0.014892532 -0.17529368 -0.071026392 1.3064747e-038
-0.013554387 -0.17547169 -0.071029179 1.306439e-038
-0.010382302 -0.17472069 -0.071151182 1.3341697e-038
-0.0091966791 -0.17572407 -0.071078688 1.3158029e-038
0.0014979057 -0.17485717 -0.070795849 1.2972907e-038
0.0033717342 -0.17535171 -0.071213618 1.3064041e-038
0.0052118748 -0.17522284 -0.071163051 1.2971841e-038
0.0068419389 -0.17564416 -0.070779212 1.278817e-038
0.0087236501 -0.1758301 -0.070821248 1.2788523e-038
0.010844812 -0.17562906 -0.070824459 1.2971478e-038
0.017253362 -0.17482805 -0.071383096 1.2880004e-038
0.018943518 -0.17516826 -0.070823289 1.3063676e-038
0.024742441 -0.17593646 -0.070018217 1.3158027e-038
0.026763428 -0.17531525 -0.070584476 1.3065114e-038
0.028892681 -0.17502511 -0.070600264 1.3249142e-038
0.035972476 -0.17553249 -0.070788585 1.3063305e-038
0.036838833 -0.17490768 -0.071050785 1.3063304e-038
0.039319392 -0.17544296 -0.071637467 1.3432083e-038
0.040627103 -0.17453299 -0.070750877 1.3247695e-038
0.042898256 -0.17411202 -0.0711945 1.3248065e-038
0.045353539 -0.17450732 -0.071137205 1.3521391e-038
0.047711268 -0.17451525 -0.070178553 1.1491666e-038
0.049144052 -0.17417182 -0.070861727 1.2134517e-038
0.051353697 -0.17489858 -0.070836999 1.2039085e-038
0.053152528 -0.17456311 -0.070765831 1.2497894e-038
0.054726981 -0.17406246 -0.070422314 1.4801701e-038
-0.041222956 -0.17266381 -0.070663832 1.6008153e-038
-0.03887362 -0.17281452 -0.07137984 1.7016567e-038
-0.036803365 -0.17265055 -0.071027137 1.8036104e-038
-0.035060059 -0.17294772 -0.071001284 1.4436879e-038
-0.033126038 -0.17297168 -0.071037978 1.1119996e-038
-0.031355333 -0.17322607 -0.071101829 1.0015817e-038
-0.012268752 -0.173535 -0.071714006 1.3526458e-038
-0.011168413 -0.17355627 -0.070770748 1.3525728e-038
0.019938402 -0.17384414 -0.07143835 1.3155869e-038
0.020598847 -0.17313194 -0.070786849 1.306403e-038
0.022900492 -0.17241886 -0.071798526 1.3247699e-038
0.035169657 -0.17245734 -0.071223184 1.2972197e-038
0.037155662 -0.17306481 -0.070893705 1.3064024e-038
0.038688183 -0.17304853 -0.070718721 1.3063664e-038
0.041165613 -0.1737061 -0.071355909 1.3430636e-038
0.043147445 -0.17361471 -0.07012517 1.2971126e-038
0.045007579 -0.1734488 -0.070748642 1.3063313e-038
0.04706211 -0.1730998 -0.071189657 1.2967514e-038
0.048952494 -0.17333552 -0.070670873 1.185613e-038
0.050836928 -0.17287976 -0.070910968 1.1761053e-038
0.053058542 -0.17293733 -0.070901595 1.231567e-038
0.054815896 -0.17276733 -0.071128339 1.7951453e-038
0.057768546 -0.17243946 -0.070331343 1.6647071e-038
-0.042749196 -0.17087851 -0.070748627 1.6195794e-038
-0.040599342 -0.17104968 -0.070667855 1.6000966e-038
-0.039180752 -0.17072147 -0.07133805 1.7297107e-038
-0.036639728 -0.17092502 -0.07100834 1.3974097e-038
-0.03488569 -0.17092273 -0.071011893 1.1488781e-038
-0.033150617 -0.17126913 -0.070974134 1.0015458e-038
-0.031525269 -0.17100728 -0.070674598 9.7403079e-039
0.021456063 -0.17148346 -0.070936881 1.3155503e-038
0.023199171 -0.17156494 -0.070517108 1.3063308e-038
0.024020601 -0.17156422 -0.071349062 1.3155503e-038
0.033349574 -0.17181236 -0.071279854 1.3062955e-038
0.034342527 -0.17196938 -0.070895717 1.3062955e-038
0.037000716 -0.17093551 -0.071124122 1.3155134e-038
0.039289989 -0.17074484 -0.071371466 1.3153692e-038
0.040984221 -0.17023993 -0.071474999 1.3245529e-038
0.051363941 -0.17154001 -0.070896864 1.1301873e-038
0.052901778 -0.1710263 -0.071056902 1.1486983e-038
0.054916333 -0.17093466 -0.070906661 1.3238341e-038
0.056826603 -0.1705908 -0.071168065 1.665174e-038
0.058674879 -0.17020723 -0.070720717 1.6737454e-038
-0.043148063 -0.1689274 -0.070720948 1.6562412e-038
-0.040837891 -0.16880353 -0.071196422 1.6276836e-038
-0.038983777 -0.16870502 -0.070932902 1.6097479e-038
-0.036943473 -0.1687963 -0.071072206 1.2223463e-038
-0.035144471 -0.16903314 -0.071030714 1.0383878e-038
-0.033256926 -0.16891958 -0.070892818 9.5555593e-039
-0.031944111 -0.16972309 -0.071059741 9.7403023e-039
0.037031449 -0.16916299 -0.071206279 1.2784556e-038
0.038125254 -0.16989225 -0.070132196 1.1949071e-038
0.053375464 -0.16915935 -0.070911728 1.148698e-038
0.055019189 -0.16889243 -0.071156353 1.1211471e-038
0.056866996 -0.16884959 -0.070990719 1.4714183e-038
0.058723237 -0.16900054 -0.070842445 1.461766e-038
-0.042749599 -0.16710036 -0.071337454 1.6370826e-038
-0.040818214 -0.1669144 -0.07097666 1.618572e-038
-0.0390191 -0.16703674 -0.070911415 1.424889e-038
-0.037058804 -0.16707571 -0.071087539 1.2318529e-038
-0.03515733 -0.16710262 -0.070923284 1.0015454e-038
0.053859338 -0.1675199 -0.071742125 1.3057547e-038
0.054917984 -0.16710001 -0.070934579 1.1120003e-038
0.056840956 -0.1670182 -0.070980094 1.3145781e-038
0.058714993 -0.16683105 -0.070972957 1.544815e-038
-0.042625464 -0.16487682 -0.07095892 1.609244e-038
-0.040809799 -0.16502857 -0.071050741 1.5356318e-038
-0.039131984 -0.16497529 -0.070897795 1.2681559e-038
-0.037070543 -0.16493189 -0.071067199 1.1766095e-038
-0.035511799 -0.16507566 -0.071332589 9.4640854e-039
0.055230331 -0.16510746 -0.070865653 1.0752659e-038
0.05721708 -0.16500993 -0.070910916 1.1485541e-038
0.058911752 -0.16498442 -0.070937328 1.3973021e-038
0.060515869 -0.16485696 -0.071476378 1.3787192e-038
-0.042810772 -0.16309543 -0.070888311 1.553783e-038
-0.040874843 -0.16308551 -0.071111351 1.4064135e-038
-0.038771689 -0.16305053 -0.070951268 1.1118198e-038
-0.037237298 -0.16300122 -0.070923045 1.0660471e-038
-0.035195932 -0.16340399 -0.070627995 9.6470375e-039
0.055071309 -0.16308947 -0.071016014 1.0199844e-038
0.057102818 -0.16307618 -0.07097774 1.2870995e-038
0.059152272 -0.16283578 -0.070951588 1.295887e-038
0.060746532 -0.1631728 -0.070918262 1.5355241e-038
0.062570676 -0.16261712 -0.070755981 1.6090648e-038
-0.044063643 -0.16102873 -0.070887342 1.5723302e-038
-0.042834584 -0.16109537 -0.07112591 1.4799543e-038
-0.041269522 -0.16102797 -0.071028203 1.3787549e-038
-0.03887976 -0.16097449 -0.071109161 1.0567904e-038
-0.037586529 -0.16120602 -0.070818067 1.0199846e-038
0.055543792 -0.16128439 -0.070836879 1.0659743e-038
0.057084635 -0.16104634 -0.071103036 1.1490943e-038
0.05880918 -0.16089112 -0.070944332 1.2316739e-038
0.060857628 -0.16103606 -0.071288019 1.3788986e-038
0.062884718 -0.16072147 -0.071049541 1.6000237e-038
-0.044616785 -0.15866181 -0.071929365 1.5631096e-038
-0.043026283 -0.1592086 -0.070803359 1.4615868e-038
-0.040796332 -0.15889637 -0.071130961 1.2222024e-038
-0.0392063 -0.15899251 -0.071057282 1.0753375e-038
-0.037560895 -0.15913159 -0.070956826 9.3726044e-039
0.05596539 -0.15984222 -0.071352147 1.1119274e-038
0.057057075 -0.15888849 -0.070985399 1.0476067e-038
0.058992293 -0.15893312 -0.070843808 1.2043753e-038
0.061068699 -0.15902041 -0.071018636 1.3602795e-038
0.062146585 -0.15900947 -0.070795648 1.6182843e-038
0.064283967 -0.15955189 -0.070612952 1.5906607e-038
-0.044545032 -0.15674613 -0.070924886 1.4614785e-038
-0.043085508 -0.15728775 -0.071221806 1.3971945e-038
-0.040835638 -0.15689604 -0.070964001 1.1210753e-038
-0.039400626 -0.15711498 -0.071144022 9.3722457e-039
-0.037647661 -0.15616804 -0.070529893 9.1875013e-039
0.057484355 -0.15725707 -0.070996702 1.0752654e-038
0.058914952 -0.1568794 -0.071235999 1.0935603e-038
0.060950439 -0.15698421 -0.071047083 1.2960305e-038
0.062718675 -0.15701076 -0.071150713 1.5261962e-038
0.065073654 -0.15612265 -0.07013543 1.5720067e-038
-0.044533495 -0.15499672 -0.070553534 1.3786823e-038
-0.042775523 -0.15492028 -0.071073025 1.2406051e-038
-0.041033972 -0.15516402 -0.070911527 1.0199843e-038
-0.039424405 -0.15549557 -0.070676066 8.8194376e-039
0.057445861 -0.155322 -0.071066298 1.0016172e-038
0.059147008 -0.15493809 -0.071050391 1.0567185e-038
0.060966343 -0.15492953 -0.070916347 1.1762844e-038
0.06284374 -0.15473948 -0.070891798 1.3696074e-038
0.064336181 -0.15466747 -0.071074471 1.5720779e-038
-0.046824366 -0.15207438 -0.071363769 1.6586007e-038
-0.044678759 -0.1528649 -0.070829354 1.4912517e-038
-0.042599749 -0.15282054 -0.070966974 1.2881369e-038
-0.041197088 -0.15304938 -0.070945278 1.1041425e-038
-0.039630871 -0.1522602 -0.07033518 1.2618771e-038
0.056484792 -0.15232103 -0.070660308 1.0108003e-038
0.059025276 -0.15314576 -0.070858464 1.0015096e-038
0.061200589 -0.15300535 -0.071011201 1.1578456e-038
0.062717207 -0.15288317 -0.071059071 1.2865953e-038
0.064710349 -0.1528253 -0.071208924 1.5444544e-038
0.066730842 -0.15217215 -0.071755409 1.4885963e-038
-0.046373229 -0.15065418 -0.070920601 2.1382978e-038
-0.045231655 -0.15091497 -0.07096044 2.092099e-038
-0.042872898 -0.15105332 -0.071037546 1.5296001e-038
-0.041052207 -0.15091161 -0.071036249 1.2991135e-038
0.056987435 -0.15087427 -0.070732906 1.0014734e-038
0.059746075 -0.15098299 -0.070758149 9.8303469e-039
0.060924742 -0.15115456 -0.070982687 1.047463e-038
0.062835731 -0.15101567 -0.07107912 1.1853598e-038
0.064873956 -0.15092637 -0.07083825 1.396941e-038
0.066961609 -0.15113172 -0.070793122 1.3515243e-038
-0.048306741 -0.14812931 -0.071071617 1.9909031e-038
-0.046281032 -0.14853315 -0.070883319 2.0553645e-038
-0.044929709 -0.1488473 -0.070873775 1.8801926e-038
-0.043184172 -0.14909314 -0.071024626 1.4559886e-038
-0.041343179 -0.14886284 -0.071012899 1.2348287e-038
0.057615742 -0.14906582 -0.070823662 9.5541202e-039
0.059325255 -0.14897834 -0.070924297 9.9225384e-039
0.061023913 -0.14889595 -0.071004026 1.2056639e-038
0.062952332 -0.14911388 -0.070907243 1.3252651e-038
0.064878121 -0.14899911 -0.071115419 1.3250858e-038
0.067027375 -0.14924751 -0.070870064 1.5939961e-038
0.068097271 -0.14861038 -0.070563585 2.1381888e-038
-0.048284791 -0.14657292 -0.070090786 1.6039809e-038
-0.046633553 -0.14694676 -0.070836768 1.7972278e-038
-0.044655908 -0.14698315 -0.071098529 1.548226e-038
-0.043228615 -0.14709331 -0.070963912 1.1334185e-038
-0.041748449 -0.14766413 -0.070877686 1.1427062e-038
0.05799273 -0.14798076 -0.070878103 9.7392261e-039
0.059203416 -0.1467372 -0.070737183 1.4463373e-038
0.06112105 -0.14715335 -0.071108758 1.4371538e-038
0.063007571 -0.14709473 -0.070945919 1.6311925e-038
0.06483829 -0.14713709 -0.070986956 1.8062918e-038
0.066389628 -0.14648479 -0.071390823 2.0275633e-038
-0.047251374 -0.1449244 -0.070900932 1.4010803e-038
-0.04480445 -0.1448866 -0.070991032 1.133497e-038
-0.043297548 -0.1449874 -0.071049735 8.6616514e-039
0.05999276 -0.14457019 -0.070574433 1.4376201e-038
0.061044127 -0.14517651 -0.070942633 1.492829e-038
0.062838517 -0.14503634 -0.070974268 1.6589231e-038
0.064812683 -0.14501631 -0.070920788 1.8987378e-038
0.066850476 -0.14501151 -0.070963822 2.1568458e-038
0.068940312 -0.14470004 -0.07178089 2.0276033e-038
-0.048249103 -0.1429774 -0.070683889 1.4843788e-038
-0.047311243 -0.14295235 -0.070770644 1.327504e-038
-0.044995673 -0.1428813 -0.070809558 1.0690317e-038
-0.043600712 -0.14311557 -0.071188159 9.0304353e-039
0.061324287 -0.14312331 -0.070822559 1.3361375e-038
0.062940076 -0.14324681 -0.071176164 1.4744659e-038
0.065059572 -0.14292407 -0.071075991 1.7603065e-038
0.066813014 -0.14278017 -0.071085826 1.9445924e-038
0.069042675 -0.14277628 -0.070921175 1.7329089e-038
-0.048404049 -0.1411154 -0.070988968 1.7790796e-038
-0.046836656 -0.14098901 -0.070978232 1.6130548e-038
-0.044722714 -0.1408816 -0.071045391 1.2072148e-038
-0.043582663 -0.14104629 -0.070951141 1.1150196e-038
0.061709758 -0.1412829 -0.070744395 1.0136745e-038
0.062842108 -0.1409681 -0.071001291 1.0873601e-038
0.065287039 -0.14115673 -0.070923686 1.3456515e-038
0.066613495 -0.14086923 -0.07101965 1.4656143e-038
-0.048880894 -0.13896941 -0.070926696 2.0188231e-038
-0.047100432 -0.13897341 -0.070959516 1.8157762e-038
-0.044692289 -0.1388901 -0.070976458 1.3639467e-038
-0.043752339 -0.1389159 -0.07074859 1.2900117e-038
0.061760534 -0.13953064 -0.071143821 1.0873601e-038
0.063014895 -0.13897155 -0.071075141 1.1612259e-038
0.064910918 -0.1388886 -0.071035244 1.4011499e-038
0.067183152 -0.1391255 -0.070915267 1.6224201e-038
-0.04860644 -0.13710502 -0.070767678 1.8712368e-038
-0.046905614 -0.13698544 -0.071068317 1.6406034e-038
-0.045096338 -0.13691966 -0.071010739 1.1978874e-038
-0.043755848 -0.13716064 -0.071015179 1.0595952e-038
0.061863165 -0.13738704 -0.07098861 1.2072864e-038
0.063047864 -0.13705982 -0.071036875 1.1704808e-038
0.064803779 -0.13678488 -0.070925064 1.4102975e-038
0.066956252 -0.13700199 -0.071205832 1.6686256e-038
0.068448782 -0.13714993 -0.071276337 1.7699336e-038
-0.048783682 -0.13500056 -0.070973389 1.9634323e-038
-0.04674514 -0.13485341 -0.070689783 1.7512736e-038
-0.045160469 -0.13505833 -0.071067706 1.3085925e-038
-0.043346792 -0.1350573 -0.071056962 1.1149477e-038
0.061908133 -0.13522892 -0.070534058 1.1704802e-038
0.063359477 -0.13504468 -0.071097881 1.1888842e-038
0.064679824 -0.13483323 -0.071203314 1.3641278e-038
0.066749558 -0.13538307 -0.070676148 1.6777009e-038
0.069052659 -0.13528913 -0.070775494 1.7514588e-038
-0.048731286 -0.13282794 -0.071109496 1.9264826e-038
-0.046969607 -0.13319999 -0.071000725 1.7604584e-038
-0.045057286 -0.13300611 -0.071035437 1.3731666e-038
-0.043480434 -0.1329883 -0.0711051 1.2257266e-038
0.063225575 -0.13302624 -0.070971586 1.2073232e-038
0.06489154 -0.13294895 -0.070969924 1.4009699e-038
0.066822052 -0.13315272 -0.071187213 1.6592968e-038
-0.049018838 -0.13091327 -0.071074232 1.5578833e-038
-0.046604086 -0.13113818 -0.070927069 1.4008255e-038
-0.044938184 -0.13096055 -0.071005665 1.1058732e-038
-0.043638133 -0.13115725 -0.071042851 1.0597755e-038
0.063208029 -0.13097158 -0.070999295 1.1704813e-038
0.064758688 -0.13104865 -0.071028017 1.373311e-038
0.067032583 -0.13102002 -0.071005374 1.6869197e-038
0.068026274 -0.13009039 -0.07077305 1.7512414e-038
-0.048331682 -0.12937702 -0.071174294 1.4933107e-038
-0.047019668 -0.12898245 -0.070804775 1.4010785e-038
-0.045084976 -0.12900941 -0.071039185 1.0874347e-038
-0.043707114 -0.12880999 -0.071181983 9.3073964e-039
0.063074745 -0.12896976 -0.071120881 1.1611899e-038
0.064618595 -0.12911782 -0.071017839 1.3365049e-038
0.066631198 -0.12865411 -0.07086017 1.6407867e-038
0.068430796 -0.1289984 -0.071709491 1.7053616e-038
-0.047095858 -0.12695082 -0.07112693 1.4747636e-038
-0.044856012 -0.127066 -0.070973262 1.0597765e-038
-0.043760084 -0.12674281 -0.071042307 9.1240883e-039
0.061783552 -0.12695992 -0.07085076 1.13346e-038
0.06315437 -0.1268173 -0.070953026 1.1611539e-038
0.064858548 -0.12715246 -0.071027279 1.3733475e-038
0.06692788 -0.12687762 -0.071249902 1.6040519e-038
0.068201214 -0.12764549 -0.07130532 1.6868509e-038
-0.046749234 -0.12494519 -0.071143076 1.4656878e-038
-0.04485593 -0.12507215 -0.071001343 1.1059099e-038
-0.043528751 -0.12494745 -0.071131259 9.308118e-039
0.061471183 -0.12528396 -0.070921406 1.1611166e-038
0.063210644 -0.12489007 -0.070886835 1.1518984e-038
0.064916112 -0.12508021 -0.070957154 1.391859e-038
0.066973522 -0.12494448 -0.071199134 1.6224924e-038
-0.046422035 -0.12342306 -0.070883483 1.4471403e-038
-0.045046538 -0.12298189 -0.071144141 1.2811524e-038
-0.043608319 -0.12296163 -0.070862047 1.0229348e-038
0.061585799 -0.12294981 -0.071091279 1.0874337e-038
0.062879406 -0.12310589 -0.070933163 1.1519347e-038
0.064849474 -0.12304907 -0.071099117 1.4287013e-038
0.066621095 -0.1228032 -0.070916608 1.5488078e-038
-0.0465215 -0.12092896 -0.07098677 1.7147209e-038
-0.045008011 -0.12095687 -0.07094945 1.4840523e-038
-0.042997517 -0.12080884 -0.0710513 1.0507002e-038
0.061583638 -0.12080574 -0.071244135 1.0782151e-038
0.062672153 -0.12111547 -0.070863947 1.1427875e-038
0.064647786 -0.120963 -0.070874125 1.4933464e-038
0.066327751 -0.12147273 -0.070459738 1.5119659e-038
-0.046490323 -0.11931658 -0.070019707 1.8069152e-038
-0.044722218 -0.11915015 -0.070991866 1.4565009e-038
-0.042884842 -0.11896512 -0.070915304 1.0968326e-038
-0.041715465 -0.11887788 -0.070915751 9.4924911e-039
0.059917677 -0.11828379 -0.070384741 9.6776054e-039
0.061082099 -0.11885562 -0.071014479 1.0874354e-038
0.062821254 -0.11929712 -0.071071573 1.2719697e-038
0.064390644 -0.11924905 -0.071192607 1.5118578e-038
-0.044940785 -0.11726717 -0.070876509 1.557917e-038
-0.042859118 -0.11726073 -0.070958138 1.1428952e-038
-0.041429538 -0.11686122 -0.07123816 9.7683661e-039
0.059786536 -0.11658497 -0.070565403 9.8598401e-039
0.06106009 -0.11700491 -0.070927337 1.0506651e-038
0.062442403 -0.11736634 -0.071107939 1.2997363e-038
0.064784169 -0.11720175 -0.071206748 1.4566793e-038
-0.044786591 -0.115127 -0.070599616 1.5486985e-038
-0.042636652 -0.11524633 -0.070672072 1.2535294e-038
-0.041303709 -0.11500192 -0.071021907 1.0597761e-038
0.057929721 -0.11402492 -0.071598172 1.0506981e-038
0.059511244 -0.11461528 -0.070998043 1.0506996e-038
0.061093319 -0.1152636 -0.071174875 1.1061617e-038
0.062408946 -0.11495213 -0.070843183 1.3829612e-038
0.064804144 -0.11565962 -0.071063302 1.51203e-038
-0.044310521 -0.11278402 -0.071150854 1.5854678e-038
-0.042525671 -0.11311286 -0.070796341 1.4840168e-038
-0.040860262 -0.11309402 -0.070981175 1.1427873e-038
-0.039674185 -0.11214098 -0.070724569 1.0689236e-038
0.057789467 -0.11310855 -0.070467293 9.6779081e-039
0.059310768 -0.11302692 -0.071200117 1.0783932e-038
0.060646661 -0.11312183 -0.071037665 1.1984269e-038
0.062135682 -0.11398573 -0.070240341 1.4382444e-038
-0.042459987 -0.11077347 -0.070593536 1.594725e-038
-0.040841073 -0.11101394 -0.070939668 1.3180297e-038
-0.039631322 -0.11091726 -0.071243331 1.0783226e-038
0.057521649 -0.11077233 -0.070868529 1.2441931e-038
0.059161354 -0.11112071 -0.071091972 1.2075697e-038
0.060881168 -0.11074835 -0.070946634 1.5028436e-038
-0.042235918 -0.1087386 -0.070722982 1.5673176e-038
-0.041065227 -0.10920689 -0.070983954 1.4102969e-038
-0.03929336 -0.10888269 -0.071047843 1.078358e-038
0.057104062 -0.10872936 -0.071095146 1.3547892e-038
0.058871061 -0.10908052 -0.070799693 1.484116e-038
0.060569767 -0.10886582 -0.071157813 1.8069382e-038
-0.041141812 -0.10692687 -0.070858106 1.4933074e-038
-0.039114174 -0.10697439 -0.070889384 1.096797e-038
-0.037731007 -0.10677256 -0.071107924 1.0229695e-038
0.055785436 -0.10674943 -0.07124427 1.3270947e-038
0.056844003 -0.10691032 -0.070878372 1.3824471e-038
0.058906406 -0.10702918 -0.071026109 1.6869396e-038
0.060545221 -0.10697881 -0.070666708 1.8992017e-038
-0.040628459 -0.10501146 -0.070928872 1.4563583e-038
-0.038759809 -0.10512781 -0.071070179 1.0782866e-038
-0.037690036 -0.10501242 -0.071374319 1.0597743e-038
0.055455498 -0.10479496 -0.071040452 1.3271305e-038
0.056920979 -0.10498529 -0.071093522 1.4562383e-038
0.058882315 -0.10490493 -0.070738375 1.8437052e-038
-0.040660694 -0.10287663 -0.070786439 1.5576659e-038
-0.039057814 -0.10313093 -0.071053445 1.1428225e-038
-0.037429135 -0.10278729 -0.071212493 1.0137486e-038
0.055151921 -0.102877 -0.070905939 1.3639724e-038
0.056938022 -0.10288453 -0.070933536 1.539249e-038
0.058510534 -0.10297495 -0.070979215 1.8528529e-038
0.060183801 -0.10312367 -0.070509106 1.9914312e-038
-0.040623348 -0.10091684 -0.070907936 1.5391541e-038
-0.03896961 -0.10104559 -0.070984118 1.1334588e-038
-0.037235424 -0.10087274 -0.070856348 9.399564e-039
0.053944401 -0.1006096 -0.071713619 1.3639724e-038
0.05516234 -0.10098419 -0.070765629 1.3916306e-038
0.05701001 -0.1010347 -0.071007073 1.7144898e-038
0.058678873 -0.10066608 -0.070685044 2.0004713e-038
0.060852412 -0.10101816 -0.070256785 2.046676e-038
-0.042095117 -0.098193206 -0.071183383 1.5025973e-038
-0.040861249 -0.099016689 -0.071124889 1.6682254e-038
-0.039041102 -0.098900802 -0.070983291 1.4283012e-038
-0.037270047 -0.098995082 -0.071028091 1.0321506e-038
0.053666968 -0.098726444 -0.071269862 1.3547171e-038
0.054961253 -0.099025607 -0.07103087 1.4561666e-038
0.056769382 -0.099043116 -0.070926964 1.7975005e-038
0.058410734 -0.099227905 -0.071232475 2.0281295e-038
-0.042022653 -0.097076394 -0.070198163 1.6962855e-038
-0.040803879 -0.097028404 -0.071168549 1.8803789e-038
-0.039133895 -0.096862689 -0.071056001 1.6220871e-038
-0.037136089 -0.096970059 -0.071116582 1.2440537e-038
0.053398944 -0.096691854 -0.07116764 1.3915589e-038
0.054913402 -0.096948572 -0.070978805 1.5576879e-038
0.056892961 -0.097312234 -0.071257092 1.8897306e-038
0.058466014 -0.097198479 -0.070692748 2.0650431e-038
-0.042262234 -0.095425218 -0.070179611 1.8069158e-038
-0.040739655 -0.094911315 -0.070889235 1.9266144e-038
-0.038921736 -0.09510646 -0.071044318 1.7050575e-038
-0.037273616 -0.094972029 -0.071155421 1.2994377e-038
0.053277656 -0.094909817 -0.071119681 1.4099977e-038
0.054652952 -0.09508723 -0.070890464 1.6037132e-038
0.057061423 -0.09500701 -0.070878021 1.9819607e-038
-0.042581677 -0.093223646 -0.07015489 1.9448453e-038
-0.040650677 -0.093079515 -0.071132883 2.000295e-038
-0.038746722 -0.093131877 -0.070894599 1.705091e-038
-0.037072033 -0.093013786 -0.071180493 1.3455339e-038
-0.035413776 -0.093001381 -0.07121186 1.1981688e-038
0.051919959 -0.092549369 -0.071774028 1.4284366e-038
0.053227756 -0.092976436 -0.071086206 1.4192889e-038
0.054757215 -0.092954896 -0.070788324 1.7051986e-038
0.057292335 -0.09317176 -0.070971124 2.0557519e-038
0.058053773 -0.09396784 -0.070598558 2.0557878e-038
-0.04073092 -0.091212504 -0.071045309 2.0096566e-038
-0.038852341 -0.090939716 -0.070777573 1.7604793e-038
-0.037199009 -0.090914004 -0.070917867 1.4008861e-038
-0.035657842 -0.090779878 -0.071229555 1.2535203e-038
0.051566862 -0.090869568 -0.071560681 1.3639724e-038
0.053012513 -0.090987712 -0.071045771 1.4376919e-038
0.054730013 -0.091072902 -0.070961259 1.7605152e-038
0.056945689 -0.091149122 -0.071051896 2.0004354e-038
0.058041394 -0.090709433 -0.070247173 2.1018849e-038
-0.04093584 -0.089383326 -0.071227536 2.0649355e-038
-0.038831506 -0.088960081 -0.070824713 1.7696987e-038
-0.03715916 -0.089059018 -0.071157858 1.3916306e-038
-0.035694487 -0.088360228 -0.071181491 1.3271305e-038
0.051567405 -0.088861614 -0.071193956 1.3731918e-038
0.052875202 -0.088926606 -0.07099054 1.4561666e-038
0.055020068 -0.089038216 -0.070989132 1.8343423e-038
0.05732974 -0.088893458 -0.070535898 2.0465325e-038
0.05812645 -0.089087158 -0.071150735 2.0742266e-038
-0.040726382 -0.086933583 -0.070955731 2.1201448e-038
-0.038948923 -0.087088577 -0.070955224 1.8434182e-038
-0.036987763 -0.087215193 -0.071080513 1.4284008e-038
-0.035459459 -0.08674711 -0.07147336 1.2993288e-038
0.051349889 -0.086981609 -0.071299851 1.3639724e-038
0.052832473 -0.08691714 -0.07107643 1.4930443e-038
0.054983385 -0.087059371 -0.070987649 1.8620364e-038
0.056674957 -0.087100729 -0.07063999 2.0096189e-038
0.05830599 -0.086465321 -0.070290305 2.0742984e-038
-0.040462624 -0.085064486 -0.070545524 2.1108174e-038
-0.038966041 -0.084893681 -0.070958756 1.7971776e-038
-0.036955711 -0.085176095 -0.071063988 1.3084765e-038
-0.035121545 -0.084845044 -0.070965357 1.2624511e-038
0.051179271 -0.084846377 -0.071322083 1.3731559e-038
0.052856188 -0.084955014 -0.070911303 1.5207384e-038
0.054934185 -0.085144192 -0.070822597 1.8712559e-038
0.056624763 -0.08527033 -0.071368113 2.0741908e-038
0.058888502 -0.085086256 -0.071606994 2.03739e-038
-0.040452618 -0.083043262 -0.07060314 2.0277349e-038
-0.039075658 -0.082958102 -0.070916608 1.5941709e-038
-0.036835693 -0.082939431 -0.071117945 1.0499033e-038
-0.035367932 -0.083037816 -0.070969015 1.1239445e-038
0.051165871 -0.08287517 -0.071123518 1.3547529e-038
0.052896407 -0.083060242 -0.070908956 1.4930443e-038
0.055092428 -0.083082192 -0.071077392 1.945083e-038
0.05631423 -0.083018705 -0.07054098 2.101849e-038
0.058508798 -0.082997151 -0.070826441 2.0558275e-038
-0.040146708 -0.080839314 -0.070152149 1.6036415e-038
-0.038961124 -0.081126213 -0.070935272 1.6214748e-038
-0.036854941 -0.08088851 -0.070913017 1.1786956e-038
-0.035196301 -0.081242226 -0.071269922 1.178835e-038
0.051170163 -0.080797702 -0.071216762 1.3639724e-038
0.052838907 -0.080905668 -0.071038172 1.557652e-038
0.054877613 -0.081105947 -0.070782624 1.8896947e-038
0.056436874 -0.080642059 -0.070733085 2.101849e-038
0.059127368 -0.081424683 -0.070058279 2.0466418e-038
-0.040362388 -0.078609735 -0.070144728 1.7881017e-038
-0.038867716 -0.079045281 -0.070998415 1.7782867e-038
-0.036889989 -0.078999892 -0.071043968 1.0960458e-038
-0.035130132 -0.079220548 -0.071085721 1.0501605e-038
0.049571227 -0.07858973 -0.071430892 1.3730483e-038
0.050856344 -0.079014219 -0.070917644 1.3639365e-038
0.052946728 -0.078994647 -0.071007572 1.5853103e-038
0.054810297 -0.07909777 -0.070888363 1.9542665e-038
0.056148902 -0.078381196 -0.071735896 2.1203238e-038
-0.040277708 -0.076472834 -0.070319556 1.7878189e-038
-0.038750637 -0.077121601 -0.070818789 1.6309962e-038
-0.037077609 -0.077225767 -0.070967771 8.5655434e-039
-0.035276461 -0.077062443 -0.071139157 7.7386652e-039
0.049812205 -0.076611862 -0.071349993 1.3547529e-038
0.051142331 -0.077052474 -0.070928417 1.40085e-038
0.053016681 -0.07716056 -0.071028553 1.6498821e-038
0.054785002 -0.077003285 -0.070858218 1.9542665e-038
0.056462806 -0.076847248 -0.071075141 2.0926669e-038
-0.040685907 -0.075265363 -0.070133604 1.9168873e-038
-0.038771249 -0.075036705 -0.070626937 1.142578e-038
-0.037030168 -0.075275384 -0.070805743 4.1426909e-039
-0.035261456 -0.075183421 -0.071076438 3.6824414e-039
0.04966937 -0.075090185 -0.071198374 1.3455694e-038
0.050967071 -0.075012341 -0.071030639 1.4746054e-038
0.052908912 -0.075195722 -0.070909455 1.7328569e-038
0.054779727 -0.075046293 -0.070689559 1.9727054e-038
0.056513168 -0.074794978 -0.070963517 2.1018895e-038
-0.040426664 -0.073004633 -0.070715725 1.7786429e-038
-0.038776621 -0.073373049 -0.070483215 6.9993079e-039
-0.036204599 -0.072726972 -0.070635065 1.1938951e-039
-0.035537302 -0.073082954 -0.070431918 2.8537527e-039
0.047947224 -0.072084785 -0.071387872 1.3823036e-038
0.049243256 -0.072836883 -0.071099654 1.3547529e-038
0.051112577 -0.073140495 -0.071021408 1.5207384e-038
0.052766375 -0.072992712 -0.070871912 1.8159034e-038
0.054556988 -0.072969139 -0.070974238 2.0280578e-038
0.056110244 -0.072561532 -0.071808591 2.0558273e-038
-0.040093005 -0.07072255 -0.07080356 1.6403622e-038
-0.035928752 -0.071502402 -0.070085987 1.1938615e-039
0.047958016 -0.070951305 -0.070364252 1.3731918e-038
0.049101301 -0.070930794 -0.070935249 1.3455335e-038
0.051083989 -0.070893556 -0.070892349 1.6037491e-038
0.052918512 -0.071060278 -0.070828974 1.8897306e-038
0.054837964 -0.071081892 -0.070948191 2.0281295e-038
0.056367032 -0.071178764 -0.070716143 2.0650452e-038
-0.040180534 -0.069027118 -0.070303693 1.6312143e-038
0.047323287 -0.068793893 -0.071441881 1.3455335e-038
0.048986576 -0.069049284 -0.070793919 1.3824112e-038
0.05101626 -0.069022812 -0.071068227 1.6683209e-038
0.052859891 -0.069237694 -0.070749722 1.9266441e-038
0.054153867 -0.068595707 -0.070968024 2.0649714e-038
0.047241554 -0.067139961 -0.071171582 1.3455335e-038
0.049164187 -0.067086026 -0.071304068 1.493116e-038
0.050804671 -0.066875808 -0.070854202 1.6683568e-038
0.052549921 -0.067364998 -0.070938498 1.9358636e-038
0.05410666 -0.066900469 -0.070869006 2.1110326e-038
0.056233197 -0.067547694 -0.070461974 2.0743106e-038
-0.03816364 -0.064564332 -0.070014 1.3082078e-038
-0.037857965 -0.065624021 -0.070078202 3.1335976e-039
-0.034849674 -0.065673247 -0.070271507 4.7644148e-044
0.045196645 -0.064748131 -0.071546063 1.3179111e-038
0.046782222 -0.065032698 -0.070896223 1.33635e-038
0.049328886 -0.064966612 -0.071126096 1.4930802e-038
0.050887447 -0.064936206 -0.070917882 1.788281e-038
0.052274115 -0.065765366 -0.070653401 1.8897306e-038
0.056890391 -0.065324873 -0.070231229 1.9636747e-038
-0.036814999 -0.062890813 -0.070555978 5.9909167e-039
-0.034732107 -0.062802143 -0.070412584 5.8990742e-039
-0.033236183 -0.062512308 -0.070904724 3.6860427e-039
0.045327954 -0.062753193 -0.071393579 1.3271305e-038
0.046932679 -0.063038908 -0.071062855 1.3547529e-038
0.049024116 -0.062938668 -0.071012102 1.5299937e-038
0.05086663 -0.06294924 -0.070950821 1.8897306e-038
0.052597843 -0.063678622 -0.07104376 2.0373505e-038
0.054287449 -0.062753148 -0.071055666 2.0650096e-038
-0.038316235 -0.060801212 -0.070618346 1.6683662e-038
-0.03669066 -0.060962956 -0.070794173 1.4558961e-038
-0.034977928 -0.060833223 -0.070915759 1.1980739e-038
-0.033194751 -0.061049405 -0.071190841 9.3974732e-039
-0.031522579 -0.060719937 -0.071109094 9.6719007e-039
-0.02976279 -0.06076334 -0.071492806 4.4121143e-039
0.043806672 -0.060356669 -0.071999967 1.2903246e-038
0.045163613 -0.06086373 -0.071384028 1.3087276e-038
0.046988603 -0.060926128 -0.07099203 1.3179829e-038
0.04905745 -0.061001938 -0.071011856 1.603785e-038
0.050715249 -0.060866937 -0.070696086 1.9081694e-038
0.054642372 -0.060851414 -0.071267113 2.028141e-038
-0.038053297 -0.058613151 -0.070530824 1.5019452e-038
-0.036595602 -0.058816127 -0.070833392 1.6677217e-038
-0.034841549 -0.059102863 -0.070977069 1.4462052e-038
-0.032979067 -0.05910217 -0.070900269 1.0772088e-038
-0.031130327 -0.058865421 -0.070915662 9.9459302e-039
-0.029387411 -0.058856688 -0.071823478 8.5658965e-039
0.043459836 -0.058886878 -0.071708247 1.2902887e-038
0.045006134 -0.058857493 -0.071252391 1.299544e-038
0.047071829 -0.05896844 -0.071102686 1.4378354e-038
0.048929121 -0.059016652 -0.070905127 1.7052704e-038
0.050564684 -0.058860559 -0.070831083 2.0188384e-038
0.055094659 -0.059225868 -0.071017213 1.9636397e-038
-0.036624521 -0.056938633 -0.070712969 1.3269153e-038
-0.034958005 -0.05707404 -0.070889197 1.4278277e-038
-0.032832853 -0.056980047 -0.070913397 1.2523348e-038
-0.031297479 -0.057000134 -0.071120523 1.1325902e-038
-0.02950762 -0.057071686 -0.071546994 1.0867133e-038
0.043431997 -0.056920063 -0.071576625 1.2811052e-038
0.045222096 -0.056833688 -0.071222737 1.3363858e-038
0.046873454 -0.056918077 -0.071038976 1.5115907e-038
0.048858989 -0.057222106 -0.070905656 1.7606228e-038
0.050190702 -0.05698159 -0.070284232 1.9543024e-038
0.0556418 -0.057878751 -0.070303932 1.9543833e-038
-0.03500418 -0.055091597 -0.070905983 1.7790616e-038
-0.032882225 -0.05485937 -0.070652075 1.6129328e-038
-0.031144021 -0.055097826 -0.071056522 1.3637938e-038
-0.029256726 -0.054676216 -0.071326494 1.2529821e-038
-0.027811091 -0.05492698 -0.071646765 1.1056492e-038
0.043200295 -0.055072375 -0.071346298 1.2995081e-038
0.045242582 -0.054923937 -0.07116548 1.3917382e-038
0.046874963 -0.055103127 -0.070822082 1.6038208e-038
0.049137421 -0.055120725 -0.070880748 1.9911801e-038
0.050677828 -0.055537071 -0.070068188 1.9912518e-038
-0.03716613 -0.052885618 -0.071183592 2.0466419e-038
-0.035263784 -0.052994821 -0.071104869 2.0373141e-038
-0.032779809 -0.053157594 -0.070888631 1.6033919e-038
-0.031151723 -0.053125534 -0.071119159 1.160429e-038
-0.029171951 -0.052927151 -0.071384802 1.0495096e-038
-0.027519464 -0.052784413 -0.071383141 9.8518695e-039
0.041686665 -0.053305857 -0.07190989 1.281141e-038
0.043092243 -0.052980464 -0.071276814 1.317947e-038
0.04498519 -0.052897908 -0.071062863 1.4377995e-038
0.046959326 -0.05317362 -0.071142413 1.788281e-038
0.048750166 -0.053294115 -0.070854679 1.9911801e-038
0.050146133 -0.05312857 -0.070508927 2.0372772e-038
-0.037002239 -0.051176459 -0.071161047 2.0558596e-038
-0.034722537 -0.050787944 -0.070936903 1.7787388e-038
-0.0326696 -0.050877541 -0.070919089 1.4726339e-038
-0.031059615 -0.050983448 -0.070919059 1.3349572e-038
-0.029016104 -0.050786745 -0.071124248 1.1045067e-038
-0.027268605 -0.051118255 -0.071389318 1.0583723e-038
-0.025891013 -0.050502639 -0.071204528 1.2334755e-038
0.041394848 -0.05067217 -0.071787819 1.2903246e-038
0.043017276 -0.050839718 -0.071222007 1.3364217e-038
0.044942643 -0.051033262 -0.070925988 1.5577237e-038
0.046802096 -0.051318914 -0.070686579 1.7698422e-038
0.04868304 -0.051086798 -0.070649803 2.0188384e-038
-0.037090398 -0.049974576 -0.070165463 2.0833026e-038
-0.034391381 -0.049166195 -0.070524909 1.3818731e-038
-0.032666057 -0.048946176 -0.070590891 1.730208e-038
-0.030990627 -0.049112067 -0.070888676 1.4730389e-038
-0.029171538 -0.048941441 -0.071168415 1.1504981e-038
-0.027103532 -0.048802879 -0.07104709 8.8320409e-039
-0.025986217 -0.049046874 -0.071848519 1.0673365e-038
0.039471935 -0.048712268 -0.07174816 1.2903605e-038
0.041104242 -0.04888865 -0.071613669 1.2995799e-038
0.043026824 -0.048991468 -0.070959345 1.410213e-038
0.044828124 -0.049087789 -0.071028374 1.7698063e-038
0.046712827 -0.049117997 -0.070968062 1.9266441e-038
0.048458971 -0.04918905 -0.070938557 2.0373848e-038
-0.034239724 -0.047404889 -0.070454009 1.5103711e-038
-0.032780342 -0.047011308 -0.070730209 1.546033e-038
-0.030928927 -0.047003388 -0.070936471 1.3343806e-038
-0.029078955 -0.047068149 -0.071136877 1.0950682e-038
-0.027184566 -0.047013056 -0.071142666 1.0401108e-038
-0.025813913 -0.047201525 -0.071598671 9.4799018e-039
0.039245736 -0.046961553 -0.0717678 1.2719575e-038
0.041105062 -0.046924539 -0.07119038 1.345677e-038
0.043024797 -0.0471683 -0.071023405 1.520846e-038
0.045171782 -0.047067743 -0.070947602 1.8713276e-038
0.046822809 -0.046905607 -0.070634209 1.9819965e-038
-0.032675326 -0.045329027 -0.070571169 1.3719721e-038
-0.030742753 -0.045045897 -0.070716292 1.5108733e-038
-0.028877873 -0.044995923 -0.070977263 1.465099e-038
-0.027139027 -0.04500021 -0.071284369 1.3636858e-038
-0.025222175 -0.045036964 -0.071373686 1.2346865e-038
0.036857866 -0.044708788 -0.071627222 1.299544e-038
0.039139774 -0.045003191 -0.071141906 1.2628098e-038
0.041017346 -0.045190703 -0.071080625 1.3549323e-038
0.042892169 -0.045055639 -0.07086926 1.6591738e-038
0.04464392 -0.045047835 -0.070664398 1.8897323e-038
-0.032802969 -0.043132193 -0.070334814 2.0004002e-038
-0.030794267 -0.043196373 -0.070913061 1.889695e-038
-0.028841607 -0.043088067 -0.071043156 1.6960509e-038
-0.026878484 -0.042960301 -0.071055792 1.4377995e-038
-0.024979506 -0.042910054 -0.071295708 1.3179829e-038
-0.023520321 -0.043054037 -0.071718916 1.281141e-038
0.037271287 -0.042726606 -0.071537286 1.2627381e-038
0.038956307 -0.042918287 -0.071032137 1.2720292e-038
0.040972244 -0.043063652 -0.070854604 1.3366371e-038
0.042735994 -0.042895947 -0.071009018 1.6040378e-038
0.044448629 -0.042963967 -0.070532933 1.5396805e-038
-0.030737458 -0.041101024 -0.070593134 1.9451547e-038
-0.028686222 -0.041129168 -0.07123784 1.8252664e-038
-0.026836919 -0.041035023 -0.070972674 1.5300655e-038
-0.025119195 -0.040880293 -0.071428865 1.4286159e-038
-0.022841059 -0.040887639 -0.071211211 1.253411e-038
0.035519946 -0.041298576 -0.07193476 1.281141e-038
0.037160631 -0.040989902 -0.071265042 1.2535545e-038
0.039050579 -0.040918998 -0.071008459 1.3458205e-038
0.040903825 -0.041084729 -0.070911668 1.3183777e-038
0.042933673 -0.041010153 -0.070811324 1.1712254e-038
0.044335376 -0.041263621 -0.070852846 1.263599e-038
-0.030462235 -0.038804058 -0.070412114 1.9636653e-038
-0.028771669 -0.039171785 -0.071138784 1.8806188e-038
-0.026861316 -0.038944516 -0.070884041 1.6499538e-038
-0.025198432 -0.038856473 -0.071001098 1.4747489e-038
-0.02322395 -0.039141368 -0.071221113 1.3087634e-038
-0.021207433 -0.038671926 -0.071407139 1.2258245e-038
0.03335632 -0.038134225 -0.071428061 1.1890212e-038
0.035487279 -0.038708862 -0.071354553 1.2535551e-038
0.037184823 -0.039019439 -0.070904732 1.3180905e-038
0.038954988 -0.038968205 -0.070968233 1.4196476e-038
0.040808987 -0.039142739 -0.070878997 1.3186286e-038
0.042871665 -0.038921922 -0.070850089 1.3004769e-038
0.044225268 -0.039762869 -0.07016436 1.8074389e-038
-0.031199999 -0.037944116 -0.070204079 1.9728847e-038
-0.028508147 -0.037072763 -0.070728049 1.8806905e-038
-0.026876669 -0.037021194 -0.070945017 1.7607304e-038
-0.024862375 -0.037215494 -0.070903338 1.4931519e-038
-0.02307567 -0.036913604 -0.071072556 1.3824829e-038
-0.021162763 -0.037112605 -0.071373761 1.2626663e-038
-0.01926145 -0.036660165 -0.071731053 1.2442275e-038
0.031769477 -0.036411703 -0.071958974 1.2167969e-038
0.033045795 -0.036795639 -0.071552828 1.2350207e-038
0.0351445 -0.03680208 -0.071123175 1.2166841e-038
0.036946334 -0.036981579 -0.070934683 1.3642242e-038
0.038851593 -0.036981001 -0.070697471 1.5671943e-038
0.041021414 -0.0367903 -0.070912495 1.5307829e-038
0.043007817 -0.037401047 -0.07070177 1.5767726e-038
0.044806775 -0.036026083 -0.070075132 1.8902381e-038
-0.028497541 -0.03540292 -0.070760958 1.9452265e-038
-0.026573457 -0.035279304 -0.071007654 1.8344499e-038
-0.02475813 -0.035219476 -0.070769809 1.6222956e-038
-0.023003936 -0.034913231 -0.070982262 1.4654936e-038
-0.021063644 -0.035044257 -0.071241155 1.317947e-038
-0.019133266 -0.034940921 -0.071438566 1.2258246e-038
-0.017655443 -0.034602381 -0.071715221 1.207278e-038
0.031262174 -0.034672473 -0.071765661 1.2443131e-038
0.033024702 -0.035187926 -0.071350597 1.2534972e-038
0.035089862 -0.035020374 -0.071092352 1.290409e-038
0.036950342 -0.035069901 -0.070876196 1.4563867e-038
0.038687389 -0.034943175 -0.070935763 1.7607689e-038
0.040905088 -0.034935754 -0.070865475 1.8072234e-038
0.042854011 -0.035135496 -0.071461357 1.7889647e-038
0.044452876 -0.034414038 -0.071057096 1.972865e-038
-0.028333925 -0.033696607 -0.07073845 1.9451906e-038
-0.02675643 -0.033115771 -0.071173877 1.9083129e-038
-0.024531983 -0.033188876 -0.070750132 1.7145615e-038
-0.022843724 -0.032944538 -0.070804685 1.5485043e-038
-0.021067603 -0.032870665 -0.071103297 1.3733354e-038
-0.019057531 -0.033024844 -0.071316093 1.2442634e-038
-0.016612519 -0.032456517 -0.071636364 1.2442275e-038
0.029247876 -0.032317877 -0.071729042 1.2719356e-038
0.030965552 -0.032900091 -0.071539588 1.2627161e-038
0.033169873 -0.032902211 -0.071121782 1.3272889e-038
0.035025701 -0.033247214 -0.070904478 1.4471068e-038
0.036763877 -0.033054046 -0.070962027 1.6683347e-038
0.038829044 -0.032988176 -0.070999891 1.8896699e-038
0.040309269 -0.032738835 -0.070573628 1.9357701e-038
-0.026810201 -0.031015569 -0.070614159 1.9543383e-038
-0.024833327 -0.031002307 -0.071001306 1.8345217e-038
-0.022725118 -0.030815756 -0.070862308 1.6500256e-038
-0.020784419 -0.03102624 -0.070919491 1.4655295e-038
-0.01909855 -0.030765619 -0.071232423 1.3272382e-038
-0.017092964 -0.030830944 -0.071241945 1.1982739e-038
-0.015403587 -0.030641185 -0.071901038 1.1890544e-038
0.027338935 -0.03085584 -0.071812794 1.2903755e-038
0.029092818 -0.030711846 -0.071500942 1.2995945e-038
0.031169726 -0.030807007 -0.071123779 1.3364724e-038
0.032982856 -0.03084263 -0.070618287 1.3825344e-038
0.035121407 -0.031055914 -0.071185514 1.7329132e-038
0.036916096 -0.030982861 -0.071150437 1.8988648e-038
0.038580008 -0.031227013 -0.070729502 2.0002703e-038
0.041207816 -0.0316654 -0.070055269 2.0368609e-038
-0.024869187 -0.029073229 -0.070364408 1.8714711e-038
-0.023194475 -0.028901624 -0.07091444 1.8438128e-038
-0.020916851 -0.029178839 -0.070694946 1.5762343e-038
-0.019037481 -0.028964553 -0.071026303 1.4471625e-038
-0.01703872 -0.028921999 -0.071347326 1.345715e-038
-0.015167209 -0.028616803 -0.071616769 1.2443033e-038
-0.012815282 -0.028003383 -0.07127592 1.0415489e-038
0.025561951 -0.028772309 -0.071309954 1.2349153e-038
0.027339129 -0.029125845 -0.071660995 1.308814e-038
0.029001748 -0.028928846 -0.071246199 1.3456561e-038
0.031174472 -0.029023249 -0.070933752 1.4102284e-038
0.032890562 -0.029133897 -0.071046591 1.6130588e-038
0.034906428 -0.029144431 -0.07092841 1.8435469e-038
0.03683535 -0.029080126 -0.070736364 1.9909503e-038
0.038536493 -0.029498469 -0.070459113 1.9630392e-038
-0.024725527 -0.02685841 -0.070231229 1.9360071e-038
-0.023108033 -0.027073603 -0.070821881 1.8806905e-038
-0.020868888 -0.026874192 -0.070672184 1.7423274e-038
-0.018746426 -0.027069021 -0.070998937 1.6039329e-038
-0.017090727 -0.027010815 -0.070871472 1.4101862e-038
-0.015230969 -0.02686719 -0.071274817 1.253531e-038
-0.013121371 -0.026817594 -0.071293168 8.6648996e-039
-0.011845451 -0.026237823 -0.071218878 8.6645745e-039
0.023551133 -0.026217436 -0.071149461 1.4190886e-038
0.025091331 -0.026903149 -0.071637616 1.2995233e-038
0.027111566 -0.026704609 -0.071124867 1.3364367e-038
0.029030664 -0.026960151 -0.071020976 1.4009735e-038
0.030834666 -0.027091974 -0.070761643 1.5300835e-038
0.03293461 -0.027020058 -0.070862591 1.6223495e-038
0.03473977 -0.027170314 -0.07102336 1.5945451e-038
0.036285974 -0.027482411 -0.070550293 1.5757079e-038
-0.024685806 -0.024981977 -0.070269056 1.9544459e-038
-0.022952478 -0.025663299 -0.07039015 1.8438128e-038
-0.020988792 -0.025165176 -0.070555583 1.8345592e-038
-0.018624967 -0.025097782 -0.070961095 1.7237951e-038
-0.016888009 -0.02494129 -0.070962578 1.4288844e-038
-0.014933357 -0.025133751 -0.070922099 1.1800288e-038
-0.013003527 -0.024934117 -0.071026355 1.0233685e-038
-0.011332749 -0.024874566 -0.071519226 1.004894e-038
-0.0090241581 -0.024668636 -0.071927965 1.1245329e-038
-0.0048047192 -0.024288516 -0.071539804 1.087727e-038
-0.0029354244 -0.024527112 -0.071981058 1.1151345e-038
0.021046715 -0.02473883 -0.071945496 1.1695779e-038
0.023067685 -0.024611337 -0.071497701 1.3083446e-038
0.025265157 -0.024894426 -0.071235172 1.3640239e-038
0.026892751 -0.024976399 -0.071122192 1.4009735e-038
0.028857615 -0.025059607 -0.070888266 1.511644e-038
0.030875275 -0.024933076 -0.07077416 1.7512812e-038
0.033067033 -0.024969585 -0.070706069 1.8066666e-038
0.03470879 -0.02567124 -0.070516154 1.1981417e-038
-0.020375857 -0.023650043 -0.070005246 1.6039676e-038
-0.01896676 -0.023270139 -0.070859604 1.5946496e-038
-0.016844025 -0.023088992 -0.070992097 1.4566881e-038
-0.014942608 -0.023020722 -0.070791565 1.2539659e-038
-0.013004254 -0.023075856 -0.070839472 1.0880498e-038
-0.011029257 -0.022966452 -0.071189351 1.0419527e-038
-0.0090162698 -0.022812596 -0.071415246 1.08787e-038
-0.0068628695 -0.022945747 -0.07150545 1.1061654e-038
-0.0052765384 -0.023381498 -0.071660697 1.1337874e-038
-0.0036644768 -0.022971775 -0.071686156 1.0508483e-038
0.00058047473 -0.022593882 -0.071880989 1.1521105e-038
0.015668871 -0.022564501 -0.07134217 9.3062992e-039
0.016321938 -0.022075752 -0.07152088 1.1422097e-038
0.018854737 -0.02256744 -0.071856603 9.5782015e-039
0.020747365 -0.022875216 -0.071722709 8.2863683e-039
0.023039924 -0.023039257 -0.071174383 1.0684534e-038
0.02491899 -0.022941012 -0.070966281 1.3453662e-038
0.026894884 -0.023164814 -0.070878141 1.4284514e-038
0.028858433 -0.023042265 -0.070955373 1.6589042e-038
0.03068435 -0.022909237 -0.07125508 1.861771e-038
0.032609627 -0.023345342 -0.070744142 1.8059863e-038
-0.020014031 -0.021226697 -0.070256434 1.1238369e-038
-0.018937357 -0.020702466 -0.070594952 1.068988e-038
-0.017103203 -0.021381393 -0.070760898 1.5951146e-038
-0.01489025 -0.02115063 -0.071044892 1.4938185e-038
-0.012890269 -0.020957299 -0.070973754 1.2264147e-038
-0.011096152 -0.02109414 -0.070865527 1.1156369e-038
-0.0090193516 -0.021026254 -0.07098674 1.1983966e-038
-0.0070372452 -0.020830126 -0.071384571 1.2535338e-038
-0.0050072512 -0.020850956 -0.071439229 1.2073642e-038
-0.0034601754 -0.020555284 -0.071394667 1.1336772e-038
-0.0013246778 -0.02070795 -0.071397297 1.1521811e-038
0.00078738667 -0.021150082 -0.071810611 1.0046332e-038
0.0043543018 -0.020378102 -0.071391195 7.279398e-039
0.0068870075 -0.020692291 -0.07197196 1.0869951e-038
0.0086744037 -0.020233871 -0.071558192 7.0896286e-039
0.010336697 -0.02022538 -0.071721882 7.5434251e-039
0.012979874 -0.020837916 -0.071629822 8.558649e-039
0.014746324 -0.020753685 -0.071337588 9.1139723e-039
0.017204333 -0.02091248 -0.071527094 1.0222464e-038
0.019116253 -0.020969026 -0.071439303 1.0500133e-038
0.02094437 -0.020827873 -0.071103811 1.0407249e-038
0.022862768 -0.021105153 -0.070996515 1.0499056e-038
0.024802292 -0.021025592 -0.070795931 1.1329169e-038
0.0269197 -0.021070218 -0.070859075 1.2436595e-038
0.028692989 -0.021023206 -0.07086961 1.4645672e-038
0.030716386 -0.021281768 -0.070337377 1.0955361e-038
-0.017121818 -0.01953027 -0.070333496 1.9078927e-038
-0.014695019 -0.019312119 -0.070569329 1.4657561e-038
-0.012731656 -0.019087428 -0.070616215 1.4012603e-038
-0.010847288 -0.019028198 -0.070982642 1.3183591e-038
-0.0089994092 -0.019097218 -0.070827223 1.2445307e-038
-0.0068870434 -0.019119432 -0.07113038 1.2720449e-038
-0.0050171604 -0.018919079 -0.07108961 1.2258011e-038
-0.0028625298 -0.018992908 -0.071324736 1.3179551e-038
-0.00095601927 -0.018883687 -0.07145147 1.2812132e-038
0.0010288154 -0.019126479 -0.071433172 1.2166051e-038
0.0031661217 -0.018567907 -0.071371473 7.737858e-039
0.0050986926 -0.018758172 -0.07153815 7.2675682e-039
0.0072986116 -0.018856455 -0.071360588 8.4664646e-039
0.0089613181 -0.018679276 -0.071403384 8.4671764e-039
0.010940406 -0.01868465 -0.071324855 7.453386e-039
0.013060416 -0.01888551 -0.071610235 7.7274604e-039
0.015004112 -0.018760636 -0.071235731 9.4816745e-039
0.016977252 -0.019073993 -0.071212061 1.0495801e-038
0.019091057 -0.019008845 -0.071087442 1.169613e-038
0.020855531 -0.019122796 -0.070861228 1.3357861e-038
0.022888128 -0.018978819 -0.071002237 1.4649325e-038
