# .PCD v0.7 - Point Cloud Data file format
VERSION 0.7
FIELDS x y z rgb
SIZE 4 4 4 4
TYPE F F F F
COUNT 1 1 1 1
WIDTH 902
HEIGHT 1
VIEWPOINT 0 0 0 1 0 0 0
POINTS 902
DATA ascii
0.0010166222 -0.070935503 0.01067773 9.2029464e-039
0.0031787951 -0.070762992 0.010674763 9.0192754e-039
0.0051206588 -0.070490047 0.010519083 9.2036667e-039
0.0071075931 -0.071059033 0.010942063 9.8490333e-039
0.0099236108 -0.070091709 0.010482222 9.2955064e-039
0.010754926 -0.07063356 0.010434318 1.0125267e-038
0.012332063 -0.070925325 0.010165181 9.6628525e-039
0.014872983 -0.070197903 0.010317621 1.0494403e-038
-0.010508729 -0.068700567 0.010425949 1.0769906e-038
-0.0090407748 -0.069058798 0.010688118 1.021709e-038
-0.0068325116 -0.069137886 0.010879288 9.9401443e-039
-0.0049476558 -0.068822883 0.01101481 9.2951392e-039
-0.00293025 -0.068932094 0.010958069 9.1114654e-039
-0.0010896974 -0.069181077 0.011113065 8.927077e-039
0.001050404 -0.069073997 0.011067079 8.8348827e-039
0.0031061922 -0.069256388 0.011157675 9.2954994e-039
0.0049714232 -0.069056571 0.011051225 9.1111109e-039
0.0071339346 -0.068920128 0.010895447 9.1114696e-039
0.0088850046 -0.069334768 0.010690722 9.111471e-039
0.01093634 -0.068818741 0.010731705 9.479892e-039
0.012752185 -0.068901584 0.010603452 9.9408688e-039
0.014929794 -0.068702579 0.010887368 1.0587317e-038
0.016645685 -0.068693951 0.010118552 1.0678794e-038
-0.015195943 -0.0666425 0.010542518 1.1322719e-038
-0.012818662 -0.066636026 0.010508086 1.030928e-038
-0.011092971 -0.067050554 0.010920464 1.0584796e-038
-0.008994556 -0.066961311 0.010914923 9.4795249e-039
-0.0070689353 -0.066898115 0.011122806 9.0192726e-039
-0.0049918341 -0.067029081 0.011140142 8.6504915e-039
-0.0030275106 -0.067185722 0.011292902 8.6508502e-039
-0.0010757172 -0.066776395 0.010820497 7.9136481e-039
0.00087904633 -0.066821136 0.010965677 8.3742647e-039
0.0031908229 -0.066806078 0.010885655 8.0973233e-039
0.005033697 -0.066793367 0.010806106 8.3735487e-039
0.0069938116 -0.066875502 0.010969911 8.3739074e-039
0.0093069263 -0.067124076 0.011073398 8.9267196e-039
0.010871248 -0.066926114 0.010910734 9.1103878e-039
0.013086887 -0.067252032 0.011470041 1.0217453e-038
0.014965899 -0.066783451 0.011278361 1.030965e-038
0.016703153 -0.067196868 0.010692121 1.0771708e-038
0.018106522 -0.066555746 0.010848921 1.0680945e-038
-0.017466696 -0.064652957 0.010341955 1.1414201e-038
-0.015034422 -0.064814761 0.010908919 1.1138327e-038
-0.012778985 -0.06465555 0.010793724 9.7564691e-039
-0.011077675 -0.06491337 0.010988954 9.3869747e-039
-0.0091892043 -0.065054663 0.011187573 9.0189083e-039
-0.0069225281 -0.065113105 0.011114472 8.4650226e-039
-0.0048785955 -0.064691536 0.011343759 8.0047689e-039
-0.0033480532 -0.065466963 0.011280997 8.1895147e-039
-0.0011945181 -0.065124482 0.011304265 7.8218126e-039
0.0010949252 -0.064934894 0.011297609 7.6374228e-039
0.0029891499 -0.064927913 0.011332172 7.4526784e-039
0.0046411399 -0.065037698 0.01137442 7.7285422e-039
0.0069551268 -0.065276727 0.011072832 7.7289009e-039
0.0092060035 -0.065086931 0.011014797 7.9136481e-039
0.011135668 -0.064974762 0.010675622 8.0061969e-039
0.012853919 -0.065255247 0.010785686 9.0185509e-039
0.01459636 -0.065066747 0.010106916 9.3858999e-039
0.016618434 -0.065191627 0.010940528 1.0494041e-038
-0.016930668 -0.06305486 0.010938984 1.1138333e-038
-0.014824376 -0.062818699 0.010488342 9.8486703e-039
-0.013015993 -0.06274686 0.010913817 9.2036597e-039
-0.011000749 -0.06319496 0.011384519 9.110748e-039
-0.0091839563 -0.062802337 0.011000756 7.9136481e-039
-0.0071576131 -0.063005924 0.011301086 7.8210951e-039
-0.0050032651 -0.062589981 0.011449611 7.3601254e-039
-0.0028191686 -0.0631878 0.011507418 7.4530385e-039
-0.00099134026 -0.063052647 0.011241729 7.1768145e-039
0.0010693803 -0.063239843 0.01153795 7.3611988e-039
0.0027808156 -0.063105009 0.011535558 7.0853378e-039
0.0051990068 -0.063467078 0.011497533 6.9934925e-039
0.0070250072 -0.063815981 0.011574138 7.8203791e-039
0.0091055138 -0.063074626 0.011599742 7.7288981e-039
0.011000714 -0.063478529 0.011241809 8.0062025e-039
0.01304153 -0.06318251 0.011095276 8.5582916e-039
0.015024968 -0.062905945 0.010821854 9.110748e-039
0.016966932 -0.062801167 0.010830286 9.7564733e-039
0.019127913 -0.063126162 0.010452427 1.0495109e-038
0.020458693 -0.062347002 0.010374044 1.0586588e-038
-0.019165736 -0.060724515 0.01029993 1.0955724e-038
-0.016890066 -0.060881011 0.010565373 1.021709e-038
-0.014929173 -0.060841922 0.010757162 9.2033051e-039
-0.01293557 -0.061023939 0.011246321 8.9270784e-039
-0.011187559 -0.061144006 0.011251057 8.2824292e-039
-0.009539186 -0.060652927 0.011269342 7.5452285e-039
-0.0043585924 -0.061485156 0.011982618 7.2700794e-039
0.010862565 -0.061856307 0.01166665 7.6381402e-039
0.012758903 -0.061322965 0.011580376 7.9140082e-039
0.015116619 -0.060737725 0.011245126 8.6508488e-039
0.017043844 -0.060748041 0.010681208 9.1111067e-039
0.01896295 -0.060677916 0.010844823 9.664642e-039
0.02032648 -0.061295785 0.010680653 1.0217453e-038
-0.018653769 -0.058663383 0.010805438 1.030964e-038
-0.01703215 -0.059088659 0.01073572 9.5720834e-039
-0.015018791 -0.058683731 0.010993526 8.5586532e-039
-0.013127889 -0.058744982 0.011074768 8.1898763e-039
-0.011070675 -0.059069872 0.011029923 7.8214581e-039
-0.0082310848 -0.059248533 0.011650532 7.2700794e-039
-0.0069952086 -0.059893291 0.011290833 7.4533916e-039
0.013524153 -0.059930746 0.011707487 7.6392122e-039
0.015367383 -0.05924201 0.011625919 8.3746263e-039
0.017079663 -0.059199862 0.011434581 9.1111081e-039
0.0186764 -0.059176967 0.011077186 9.3869775e-039
0.020330083 -0.059156995 0.010642086 9.2958539e-039
-0.021660564 -0.056027047 0.010367222 1.104649e-038
-0.019184936 -0.057025108 0.010872376 1.0678423e-038
-0.016855355 -0.057006896 0.011241156 9.9405058e-039
-0.015064336 -0.057094116 0.01121814 8.1905923e-039
-0.012951924 -0.056872793 0.011477096 7.4537532e-039
-0.010716489 -0.057751015 0.01160531 7.2686514e-039
0.014921166 -0.056669094 0.011939717 8.5590105e-039
0.016983824 -0.057047985 0.011834698 8.8341625e-039
0.0189927 -0.056702487 0.010997563 9.110748e-039
0.020838903 -0.056792472 0.010752596 9.6639147e-039
0.022710167 -0.056022488 0.010562601 1.0308925e-038
-0.022671811 -0.054755565 0.010071635 1.0678784e-038
-0.020898931 -0.054784246 0.010624099 1.0217091e-038
-0.019029144 -0.054861873 0.011051769 9.4802451e-039
-0.016872132 -0.055124935 0.010824872 8.2827894e-039
-0.015159587 -0.055306505 0.011266573 8.0054878e-039
-0.013208605 -0.055165049 0.011625279 7.1775334e-039
0.017057305 -0.055345178 0.01139538 8.2817146e-039
0.0190074 -0.055129118 0.010995707 8.6501327e-039
0.02081828 -0.054832716 0.010628985 9.202945e-039
0.022333052 -0.054926779 0.010637689 9.6632001e-039
-0.022567231 -0.053052858 0.010381905 1.0216377e-038
-0.021123864 -0.052924898 0.010934803 9.940503e-039
-0.018893529 -0.053120092 0.010808368 8.3746263e-039
-0.017078213 -0.053023364 0.011055364 7.8218126e-039
-0.015059566 -0.053383119 0.01132788 7.2693689e-039
-0.013794512 -0.053759724 0.011969641 7.26865e-039
0.017161634 -0.052986305 0.011993022 8.3735501e-039
0.018790115 -0.053310771 0.011799087 8.6501313e-039
0.021178668 -0.053025048 0.011114344 9.1111095e-039
0.023067992 -0.052721195 0.010852404 9.755753e-039
-0.025259756 -0.051435824 0.010143962 1.0402194e-038
-0.022997249 -0.050772496 0.010574813 9.940503e-039
-0.021038614 -0.051011607 0.01090609 8.6512089e-039
-0.019185752 -0.051201399 0.010865636 7.6374256e-039
-0.017252073 -0.051435418 0.011766449 7.5452299e-039
0.021484857 -0.051151957 0.011559977 8.9263595e-039
0.023244502 -0.051021766 0.011023884 9.2944204e-039
0.024833513 -0.050593324 0.010456398 9.847234e-039
-0.024277395 -0.048748415 0.010571716 9.7568334e-039
-0.022820106 -0.048746131 0.010916802 8.8352387e-039
-0.021098712 -0.049042068 0.011257477 8.3746235e-039
-0.019115396 -0.049363229 0.011561581 7.6374256e-039
-0.017691635 -0.04882174 0.011826381 7.0853378e-039
0.023103101 -0.048852623 0.011622565 9.0185551e-039
0.024993364 -0.04904221 0.01097048 9.755044e-039
-0.026398825 -0.046715889 0.010244193 1.0216367e-038
-0.024839947 -0.04686806 0.010868998 9.2958567e-039
-0.022977624 -0.046774633 0.011026405 8.0980408e-039
-0.021295635 -0.047215018 0.011515887 7.9143698e-039
-0.01999235 -0.047057204 0.011752771 7.26865e-039
0.025044939 -0.047361016 0.010994823 9.3869775e-039
0.027385835 -0.047332652 0.010624396 1.0031621e-038
-0.026383843 -0.045177072 0.010572023 9.2954994e-039
-0.024995094 -0.044961244 0.010738673 8.4668191e-039
-0.02303094 -0.045082152 0.011208843 7.6377829e-039
0.025192229 -0.045679301 0.011500861 9.2951406e-039
0.02707663 -0.045314066 0.011294198 9.5710086e-039
0.028950937 -0.044966161 0.010803329 9.9401429e-039
-0.028274952 -0.042679764 0.010330827 9.9397898e-039
-0.026821002 -0.043260049 0.010822425 9.2955008e-039
-0.025107138 -0.042871796 0.010942739 8.0058465e-039
-0.023362899 -0.04317867 0.011563244 7.9140068e-039
0.028729403 -0.043951996 0.01072525 9.6632001e-039
-0.028348224 -0.040943436 0.010530055 9.7553957e-039
-0.026363293 -0.041002795 0.01079534 8.5590119e-039
-0.024821794 -0.040922131 0.011103985 7.5455845e-039
-0.026720036 -0.038764633 0.01077521 8.4671778e-039
-0.025081411 -0.039225079 0.011299378 7.6385018e-039
-0.023247179 -0.038411535 0.011948084 7.4541105e-039
-0.029070925 -0.037484549 0.010507173 9.8486745e-039
-0.026778819 -0.036979422 0.010819344 8.0987568e-039
-0.025453893 -0.037025392 0.010921312 7.7303372e-039
-0.023807347 -0.036731839 0.01117252 7.3601268e-039
-0.028670682 -0.034934416 0.01088723 9.7568376e-039
-0.027108755 -0.034953762 0.010988786 8.1909553e-039
-0.025461627 -0.034766268 0.011152072 7.2697262e-039
-0.023836059 -0.035712384 0.011642248 7.1775334e-039
-0.028825359 -0.032765917 0.01068991 9.204024e-039
-0.027131453 -0.033150222 0.011037614 7.8221769e-039
-0.025520971 -0.033135489 0.011518177 7.0856923e-039
0.025515661 -0.032289445 0.01151734 6.9920632e-039
-0.030700585 -0.031011198 0.011119952 1.0033776e-038
-0.028760772 -0.030788694 0.010957341 8.1902364e-039
-0.027337216 -0.03135876 0.011163046 7.1771705e-039
0.027208813 -0.031030055 0.010948881 6.8087495e-039
-0.032672532 -0.029570349 0.010080396 1.0310009e-038
-0.031019857 -0.029231032 0.010641078 9.8483074e-039
-0.029085571 -0.028921323 0.010972168 7.9143684e-039
-0.027465563 -0.02905637 0.011242788 6.9927806e-039
0.027587572 -0.029652292 0.011284504 6.8998675e-039
0.028761916 -0.029053245 0.010774347 6.8998675e-039
-0.03252789 -0.02621652 0.010239216 9.9397898e-039
-0.030689748 -0.026996758 0.010820257 8.9270784e-039
-0.029239787 -0.027127599 0.011073559 7.6377829e-039
-0.027492158 -0.027821511 0.010827878 6.9924233e-039
0.028813114 -0.027003486 0.011100284 6.8087439e-039
0.030218666 -0.026461745 0.010160726 6.9931323e-039
-0.032251075 -0.024556562 0.011018513 9.4802465e-039
-0.030630274 -0.02503372 0.010813524 8.2820677e-039
-0.029175248 -0.025022639 0.011179528 7.2693619e-039
-0.027608886 -0.024790492 0.010666344 6.9009451e-039
0.02966593 -0.025294375 0.011395249 6.809467e-039
0.030506046 -0.024462953 0.010056698 7.1768145e-039
-0.032674335 -0.023410596 0.010297576 9.0192726e-039
-0.031032091 -0.022592092 0.011038427 8.1905923e-039
-0.028802557 -0.022964016 0.011131515 6.9005836e-039
-0.027260359 -0.023798119 0.011708645 6.9924233e-039
0.029674759 -0.023570228 0.011739889 6.809467e-039
0.030235732 -0.023015061 0.010846093 6.9020129e-039
-0.0325763 -0.02107277 0.010864441 9.2036625e-039
-0.030889148 -0.020499323 0.010639265 7.2690032e-039
-0.02930218 -0.021234071 0.011232127 6.9005836e-039
0.029719122 -0.021349063 0.011314651 6.7161937e-039
0.030315354 -0.020606883 0.010605204 6.8083894e-039
-0.032763965 -0.018817041 0.010149967 7.3619149e-039
-0.030407248 -0.018883035 0.011269351 7.0846147e-039
-0.029188562 -0.018921923 0.011843599 6.9924233e-039
0.029837005 -0.018788951 0.011333121 6.6239967e-039
0.031225882 -0.019213146 0.010364827 6.8998675e-039
0.032610733 -0.018358871 0.010508791 6.8087481e-039
-0.032673463 -0.016719876 0.010793088 6.5321612e-039
-0.03110075 -0.017381538 0.011083262 7.084972e-039
0.030618362 -0.01732407 0.010968767 6.7154763e-039
-0.031343158 -0.015745049 0.010725566 7.4541105e-039
0.031399719 -0.015859189 0.010604411 6.6239967e-039
0.011324495 -0.14861387 0.012606584 3.1378758e-039
0.013285855 -0.1486454 0.012567515 4.6144366e-039
0.014198318 -0.1487841 0.012619298 1.93389e-040
0.013370534 -0.14732906 0.013198533 3.3208265e-039
0.014920074 -0.14686675 0.012906292 3.3215314e-039
0.01680843 -0.14646848 0.012553762 6.548747e-039
0.013770744 -0.14574915 0.012518883 2.6790557e-039
0.01534085 -0.1450561 0.013171144 3.1382247e-039
0.016907806 -0.14486192 0.01285929 4.7044672e-039
0.019008849 -0.1446909 0.012756369 7.6543729e-039
0.015924491 -0.14353548 0.013521018 3.1375059e-039
0.017341375 -0.1432724 0.013065999 4.1509333e-039
0.018815862 -0.14293942 0.013116988 6.456187e-039
0.021012679 -0.14285396 0.012911869 9.0376632e-039
0.022031909 -0.14240636 0.012540214 9.2231349e-039
0.017380819 -0.14184836 0.013086185 3.5977469e-039
0.018966995 -0.14119314 0.013124 3.7835885e-039
0.020678643 -0.14080019 0.013050564 4.9814115e-039
0.022976913 -0.14070681 0.013075451 8.2082627e-039
0.024573211 -0.14043662 0.01296069 8.577404e-039
0.02600106 -0.14007162 0.012737107 8.9458179e-039
0.019894425 -0.13988003 0.012444094 2.7701499e-039
0.021090239 -0.13931924 0.01312414 3.1382205e-039
0.022782404 -0.13885608 0.013063288 3.875424e-039
0.025042651 -0.13898966 0.012954693 7.6550847e-039
0.026718793 -0.1389755 0.013011318 8.5756131e-039
0.028534498 -0.13861069 0.013353985 7.6543701e-039
0.021898568 -0.13785627 0.012995893 2.8616364e-039
0.023178464 -0.13709594 0.013090394 3.0456634e-039
0.02487913 -0.13682787 0.013030414 3.7832284e-039
0.026768038 -0.13691185 0.012931854 6.0881149e-039
0.028746789 -0.13671869 0.01314946 8.483772e-039
0.030737149 -0.13667753 0.012584708 7.5621744e-039
0.032222547 -0.13606687 0.013335377 7.3770545e-039
0.02547447 -0.13551188 0.013011656 2.9538265e-039
0.027037976 -0.13490762 0.013004115 3.2304133e-039
0.028930139 -0.13489901 0.012964314 5.3501982e-039
0.030746587 -0.13492787 0.012909277 7.9313185e-039
0.032510422 -0.13465697 0.01242415 7.9313171e-039
0.027431961 -0.13372386 0.013111046 3.1382135e-039
0.029126 -0.13321197 0.013128047 3.3222474e-039
0.030817745 -0.13288264 0.012862054 4.8888613e-039
0.033054311 -0.13305397 0.012975136 8.7617924e-039
0.034463704 -0.13296029 0.012859556 8.2089662e-039
0.031203687 -0.13132702 0.013196501 3.7821508e-039
0.032834359 -0.13103062 0.013095815 6.3636242e-039
0.035066787 -0.13079067 0.013023152 9.6830284e-039
0.036496352 -0.13059017 0.013206329 7.5639793e-039
0.031594057 -0.12954839 0.013285922 3.4137242e-039
0.033063762 -0.12911041 0.013221273 3.3215286e-039
0.034910131 -0.12913638 0.012946066 5.3498324e-039
0.036937606 -0.12886596 0.012987388 7.6550917e-039
0.038555436 -0.12888712 0.013447579 6.5465904e-039
0.033387817 -0.12731749 0.012786469 2.9527489e-039
0.034955986 -0.12684797 0.0129439 2.953109e-039
0.036943194 -0.1269356 0.012960951 6.4547465e-039
0.038584448 -0.12636803 0.013124601 7.8380382e-039
0.035483796 -0.12557031 0.013358149 2.9531104e-039
0.036979213 -0.12504621 0.013022861 4.2416926e-039
0.039022584 -0.12506026 0.013050026 8.3915666e-039
0.040635303 -0.12508097 0.012647095 8.2997381e-039
0.042866506 -0.12458995 0.013027597 6.6398608e-039
0.044335209 -0.12511161 0.013562687 5.7186276e-039
0.037553232 -0.12343948 0.013141843 3.6892321e-039
0.038936101 -0.12279058 0.013005337 4.3342386e-039
0.040962961 -0.12309274 0.01302398 8.0231554e-039
0.042291246 -0.12230955 0.013380818 7.2855931e-039
0.039223243 -0.12117078 0.013140804 3.2286085e-039
0.040925164 -0.12096032 0.012966119 4.1509333e-039
0.042938754 -0.12087669 0.012777575 7.2859519e-039
0.044438176 -0.12029874 0.013109975 7.6565154e-039
0.039705336 -0.11979072 0.012730874 3.2279008e-039
0.04115678 -0.11917404 0.012943126 3.5052024e-039
0.042971075 -0.11901595 0.012937882 4.5200816e-039
0.044746529 -0.11863732 0.012909208 6.8260485e-039
0.041519821 -0.11715652 0.012911071 3.5044793e-039
0.042706981 -0.11686017 0.012936043 3.2278966e-039
0.044907179 -0.11696449 0.012975593 4.980701e-039
0.046169888 -0.11600798 0.012060501 7.1948366e-039
0.041919969 -0.11586167 0.012071759 3.8725416e-039
0.043098282 -0.11494082 0.012858908 3.5041164e-039
0.044908438 -0.11488694 0.013154591 3.3208237e-039
0.046618517 -0.11493686 0.012976953 5.5349468e-039
0.048069216 -0.11502371 0.012576658 5.7204352e-039
0.04357997 -0.11303481 0.013213171 3.5041178e-039
0.044948258 -0.11292993 0.012852937 2.8598372e-039
0.046735831 -0.11303762 0.0130385 3.7825179e-039
0.048111096 -0.11266413 0.013291907 5.1661783e-039
0.043954801 -0.11185902 0.01313616 3.6877874e-039
0.045038804 -0.11106071 0.01295853 2.9516699e-039
0.047130778 -0.1110018 0.012984956 2.860926e-039
0.04866096 -0.11075613 0.0128514 4.2442234e-039
0.050058041 -0.11040999 0.012715884 4.3375008e-039
0.04558732 -0.1092611 0.013108292 2.5836076e-039
0.046918765 -0.10889184 0.012968411 2.2151936e-039
0.049075965 -0.1089102 0.012696899 3.3233475e-039
0.050103508 -0.10931689 0.012849309 3.600656e-039
0.045943879 -0.10769428 0.012840899 2.5825314e-039
0.047036666 -0.10695805 0.013125075 2.1233539e-039
0.048989505 -0.10709569 0.012966026 2.4013912e-039
0.050754804 -0.10719637 0.013000257 3.2329483e-039
0.047215924 -0.10556926 0.013046646 2.4914148e-039
0.048979845 -0.10506356 0.01309719 2.2159153e-039
0.051018659 -0.10495904 0.01283389 2.7716142e-039
0.052065473 -0.10426316 0.012584053 3.5117058e-039
0.047366623 -0.10311785 0.013448242 2.492135e-039
0.049264234 -0.10321519 0.013109424 2.4003024e-039
0.051007498 -0.10292213 0.013032317 2.4013898e-039
0.052712962 -0.10305092 0.01282604 3.2351175e-039
0.054197643 -0.10271289 0.013113305 3.6035581e-039
0.047243532 -0.10099768 0.013229458 2.4921379e-039
0.049328372 -0.10112253 0.013215596 2.85984e-039
0.051016733 -0.1011714 0.012776904 2.3081109e-039
0.052718531 -0.10095876 0.012905824 2.7723387e-039
0.049021337 -0.099054299 0.013054976 2.6761662e-039
0.051163405 -0.099208526 0.01307599 2.308827e-039
0.052731421 -0.098790482 0.012893678 2.494663e-039
0.054714054 -0.09964335 0.012035806 3.41952e-039
0.049868956 -0.097361177 0.013568399 2.5850495e-039
0.050876115 -0.096955717 0.012807205 2.6765249e-039
0.053066231 -0.097160414 0.013019612 2.586137e-039
0.054431643 -0.09661416 0.012744397 3.6910496e-039
0.051263731 -0.095084377 0.012950286 3.3190146e-039
0.053247735 -0.094937161 0.013016385 3.8721786e-039
0.055037774 -0.094533496 0.012881772 5.7146451e-039
0.056464855 -0.094472893 0.012314498 7.4638425e-039
0.051861621 -0.093523286 0.012129359 4.6994043e-039
0.053115346 -0.093115218 0.013142047 5.8940001e-039
0.054589655 -0.092953213 0.01291216 6.8119921e-039
0.056723606 -0.093180113 0.013097941 9.944103e-039
0.052814186 -0.090793855 0.012414922 6.0747872e-039
0.05493699 -0.09162274 0.013210326 7.6388619e-039
0.057011604 -0.091239884 0.012919418 8.9267182e-039
0.0011013635 -0.070227876 0.012271443 1.1229811e-038
-0.008136902 -0.068219692 0.012453044 1.1600368e-038
-0.0052529238 -0.068434224 0.012534996 1.0769187e-038
-0.0029330458 -0.0684205 0.012659688 1.1139049e-038
-0.00052326114 -0.068870082 0.012140534 1.0125256e-038
0.0011435661 -0.068686426 0.012772312 1.0586235e-038
0.0031373899 -0.068923652 0.012313074 9.9408674e-039
0.0049299635 -0.068804219 0.012554405 1.0678794e-038
0.0068578897 -0.068726726 0.012229349 1.0401847e-038
0.0087241605 -0.068443708 0.012301263 1.0678437e-038
-0.011034328 -0.066486925 0.012084822 1.1231965e-038
-0.0094068702 -0.066425309 0.012446066 1.1230887e-038
-0.0068332693 -0.066883832 0.012413586 1.0678425e-038
-0.004780665 -0.066797636 0.012690069 1.0770988e-038
-0.0030199429 -0.066941835 0.012875591 1.040184e-038
-0.0010345624 -0.067218237 0.012724829 1.0493317e-038
0.00089186459 -0.066881396 0.012755681 1.0124896e-038
0.003007635 -0.066927172 0.012793048 1.0217094e-038
0.0049665533 -0.066940807 0.012635283 1.0216737e-038
0.0070118802 -0.067350656 0.012811497 1.0493324e-038
0.0087381946 -0.066756859 0.012667291 1.0309293e-038
0.010990372 -0.06689664 0.012625623 1.0586958e-038
0.01210732 -0.067317344 0.012220189 9.8483144e-039
-0.012668259 -0.064518377 0.01258438 1.114011e-038
-0.010668633 -0.064818658 0.012844989 1.0955016e-038
-0.0087457476 -0.064831331 0.012350759 1.0033052e-038
-0.0070197829 -0.064708456 0.012991924 1.058587e-038
-0.0049607307 -0.065125711 0.012852935 1.0033057e-038
-0.0030037866 -0.065014027 0.01293163 9.7564733e-039
-0.0012145782 -0.065250807 0.013026325 9.5724394e-039
0.00095896132 -0.06507019 0.012818024 9.7557558e-039
0.0031408377 -0.065078653 0.013049118 9.7561132e-039
0.0051285066 -0.065511592 0.01356831 1.0493684e-038
0.006791926 -0.065240189 0.013101193 9.9405086e-039
0.0091116903 -0.065087661 0.012689609 1.0032344e-038
0.010856161 -0.064673387 0.013067116 1.0216738e-038
0.01300144 -0.064881615 0.01241512 1.021817e-038
0.015067164 -0.064954907 0.012325309 1.068023e-038
-0.015504042 -0.062929556 0.012481585 1.1506399e-038
-0.013131252 -0.063178211 0.01281058 1.1047214e-038
-0.010563711 -0.062460054 0.01251915 1.0308927e-038
-0.0090253521 -0.062824488 0.012804839 9.7561132e-039
-0.0069107898 -0.062791534 0.013026524 9.6639203e-039
-0.0050211251 -0.062818125 0.013153241 9.1111095e-039
-0.0030249215 -0.062719546 0.013207748 9.1111067e-039
-0.0013316692 -0.062881805 0.012913952 8.5586546e-039
0.00097734667 -0.062944837 0.013134751 8.9274315e-039
0.0031285777 -0.062731951 0.012826629 8.3739116e-039
0.0050378498 -0.062964715 0.012951019 8.9267168e-039
0.0068273256 -0.062738843 0.012912003 8.8345198e-039
0.0090421475 -0.062872969 0.012912933 9.3873334e-039
0.010875415 -0.062352374 0.01224502 8.9256378e-039
0.012681268 -0.063045263 0.013096128 1.0309999e-038
0.016389595 -0.062348701 0.012778183 1.1601469e-038
-0.017082021 -0.060879629 0.012849798 1.1323083e-038
-0.01441717 -0.060991824 0.012473248 1.1047214e-038
-0.012757181 -0.06095513 0.013047637 1.0494756e-038
-0.010941789 -0.0611373 0.0126806 9.6639231e-039
-0.0089767333 -0.060969118 0.013246721 9.571366e-039
-0.0072914483 -0.06133223 0.012945813 8.8341653e-039
-0.0050127688 -0.060900807 0.012432461 7.7292625e-039
-0.0026222032 -0.061010826 0.013060121 7.821814e-039
-0.0010589528 -0.060992941 0.013015359 8.0054864e-039
0.00091506582 -0.061188608 0.013195003 8.0058437e-039
0.0032090757 -0.061268359 0.013163393 8.0062011e-039
0.0050013703 -0.061087091 0.013083318 7.5452313e-039
0.0068717008 -0.060914461 0.013112439 8.0976764e-039
0.0090703163 -0.060954954 0.013172348 8.4660974e-039
0.010993059 -0.06078773 0.012937899 8.8345226e-039
0.013230908 -0.061096616 0.012679318 9.3880467e-039
0.014841589 -0.061050069 0.012991722 1.0310017e-038
0.019669157 -0.060113735 0.013177749 1.150928e-038
0.020039532 -0.060772128 0.012267534 1.1417085e-038
-0.016929761 -0.058621623 0.013012893 1.1231235e-038
-0.015155539 -0.059271593 0.01305462 1.0955719e-038
-0.012876106 -0.058825955 0.012628946 9.4802479e-039
-0.01097698 -0.059076048 0.013065841 9.1107536e-039
-0.0093734404 -0.058902416 0.012957685 8.8345226e-039
-0.0072236834 -0.059095278 0.013019954 8.4661016e-039
-0.0049441792 -0.059264164 0.012988407 7.5452313e-039
-0.0030669789 -0.059137877 0.013327966 7.5448712e-039
-0.0012553078 -0.058865897 0.0133526 7.6374242e-039
0.0010047976 -0.059180211 0.013513041 7.3608387e-039
0.0029897292 -0.05967303 0.013674417 7.5455859e-039
0.0051574637 -0.059607264 0.013465981 7.637427e-039
0.0071376427 -0.059288289 0.01322984 7.4533888e-039
0.0091334647 -0.059032425 0.013016877 7.5455845e-039
0.011506113 -0.058589093 0.012850917 8.098038e-039
0.012958623 -0.058620848 0.012541874 8.4661002e-039
0.014859667 -0.058942862 0.012472289 9.2033009e-039
0.016819086 -0.058188401 0.012988993 1.0401847e-038
0.018501831 -0.059509076 0.013033961 1.1416729e-038
-0.01828244 -0.056920946 0.012616608 1.114011e-038
-0.016820023 -0.057181314 0.012563172 1.0862459e-038
-0.014968622 -0.057066984 0.012602806 1.0493678e-038
-0.012969593 -0.056726824 0.01275216 9.5717247e-039
-0.010927113 -0.05660611 0.013091005 8.6504943e-039
-0.0092986021 -0.056775827 0.013071178 8.098038e-039
-0.0071376022 -0.056911323 0.013138392 7.7288981e-039
-0.0051497184 -0.057287958 0.013291932 7.6370654e-039
-0.0028687455 -0.057213701 0.013636315 7.6367067e-039
-0.00078029284 -0.057258409 0.013412856 7.6363508e-039
0.00050742243 -0.057030696 0.013494528 7.9125789e-039
0.0033484846 -0.057317626 0.013818659 7.2690032e-039
0.0051262723 -0.056975238 0.013530791 7.3619149e-039
0.0070784478 -0.056829453 0.013372466 7.5455845e-039
0.0088384543 -0.057022385 0.013376753 8.0054822e-039
0.01110754 -0.056900475 0.013076331 8.2813488e-039
0.012944108 -0.056659386 0.012876604 8.4660988e-039
0.014622163 -0.057007119 0.013363326 9.6642749e-039
0.016671898 -0.056986596 0.012771464 1.0310003e-038
0.018005908 -0.056961797 0.012411845 1.0585159e-038
0.022290545 -0.056659102 0.012496995 1.123305e-038
-0.020311536 -0.054369681 0.012023505 1.0862819e-038
-0.018846378 -0.055093758 0.01287512 1.1321993e-038
-0.016681224 -0.055102929 0.012745673 1.0033419e-038
-0.014864097 -0.055160683 0.012893942 9.4798934e-039
-0.012984043 -0.054944921 0.012991933 8.4664618e-039
-0.010938453 -0.054983556 0.013175505 7.9132922e-039
-0.0092858421 -0.055001438 0.013430737 7.5452271e-039
-0.0068866909 -0.055224132 0.01352544 7.3608373e-039
-0.0051332098 -0.055275481 0.01380986 7.543795e-039
-0.0028022812 -0.05518423 0.013815088 7.8200232e-039
-0.0010625804 -0.054733653 0.013798003 8.0040543e-039
9.4155781e-005 -0.054738842 0.013926024 8.0962499e-039
0.0075006117 -0.055271551 0.013924349 7.5455845e-039
0.0093293712 -0.055505365 0.013918716 7.5455845e-039
0.011012516 -0.055076972 0.013636589 7.7296156e-039
0.013174245 -0.05468566 0.013227517 8.2817118e-039
0.015042742 -0.055202402 0.012429076 8.1895189e-039
0.017072422 -0.054789998 0.012907046 9.4795305e-039
0.019014064 -0.054799601 0.012164693 9.8475941e-039
0.020174587 -0.054804809 0.012293132 1.0216367e-038
0.022722155 -0.054279022 0.012757727 1.1141567e-038
-0.02014537 -0.05290141 0.012707101 1.0956072e-038
-0.018574741 -0.052760333 0.012768121 1.0401483e-038
-0.016684093 -0.05308127 0.013037385 9.6642805e-039
-0.014977098 -0.053085454 0.012851677 8.3746263e-039
-0.013085381 -0.05315515 0.013074446 7.6374256e-039
-0.011105797 -0.053208828 0.013330827 7.2690032e-039
-0.0088114981 -0.05397737 0.01369538 7.1778837e-039
-0.0076509765 -0.053870101 0.013624549 7.0856881e-039
0.0099027632 -0.052567132 0.013971163 7.9129376e-039
0.013508493 -0.053757798 0.013172796 8.3742563e-039
0.014947454 -0.052972801 0.013441959 8.3735473e-039
0.016889011 -0.052922752 0.013320555 8.925998e-039
0.019089954 -0.053091746 0.013015883 9.6639203e-039
0.020737877 -0.052371554 0.012545137 1.0124898e-038
0.02277476 -0.05276338 0.013362505 1.141706e-038
-0.022177763 -0.050346002 0.012113033 1.076955e-038
-0.020970417 -0.050912905 0.012424171 1.0401125e-038
-0.019198796 -0.050968982 0.013124709 9.7564775e-039
-0.01714211 -0.050937429 0.012839712 8.6512089e-039
-0.015083992 -0.050980389 0.013263158 7.9136509e-039
-0.013186616 -0.051459063 0.013669418 7.8214553e-039
-0.011410302 -0.051745057 0.013858556 7.7296156e-039
0.015357812 -0.051116504 0.013835229 8.1895147e-039
0.016962562 -0.051398788 0.013563972 8.466103e-039
0.018771254 -0.051170878 0.013252315 9.0181978e-039
0.020860566 -0.050978791 0.012802786 9.8483088e-039
0.023043184 -0.051090669 0.012756301 1.0585872e-038
-0.022497555 -0.048688184 0.012768305 1.0217453e-038
-0.020758167 -0.049083613 0.013003758 9.8486731e-039
-0.019087397 -0.049053624 0.012898673 8.5586546e-039
-0.017096262 -0.048959225 0.013075275 7.6377829e-039
-0.015227783 -0.048995979 0.013403812 7.5452271e-039
-0.01297658 -0.049197756 0.013828994 7.361196e-039
0.018784046 -0.04949763 0.01323425 8.4653842e-039
0.020820372 -0.049145501 0.013084707 9.0189097e-039
0.022674704 -0.048820339 0.012769992 9.8479515e-039
0.024930988 -0.04812514 0.012305332 1.0492245e-038
-0.024778368 -0.047010019 0.01218571 1.0400765e-038
-0.022992011 -0.046787374 0.012764001 9.6642791e-039
-0.020978821 -0.04717182 0.012983651 8.5590133e-039
-0.019165838 -0.047085389 0.013275258 7.9143642e-039
-0.017389318 -0.0468443 0.013313283 7.2693633e-039
0.021215893 -0.047052465 0.013408113 8.8345184e-039
0.023054099 -0.046952497 0.013002506 9.2951392e-039
0.024505781 -0.046920381 0.012411739 9.5710044e-039
-0.024403751 -0.044788338 0.012429904 9.6635616e-039
-0.023035148 -0.044812772 0.013240994 9.5720834e-039
-0.020992029 -0.045042485 0.013080319 7.914367e-039
-0.019007839 -0.044895645 0.01383285 7.3619149e-039
0.022874355 -0.044914909 0.013365248 8.8348799e-039
0.02478141 -0.045197442 0.012916572 9.3880523e-039
0.027259972 -0.04467269 0.012625911 1.0032336e-038
-0.025030537 -0.04268004 0.012724422 9.756116e-039
-0.022895301 -0.042976309 0.012971702 8.3746235e-039
-0.021270622 -0.043117147 0.013582369 7.8218126e-039
-0.01775945 -0.042209499 0.01369421 6.9016626e-039
0.024944589 -0.043616157 0.013207333 9.2954979e-039
0.026556397 -0.043664351 0.012766853 9.4795305e-039
-0.026235117 -0.040278398 0.01201151 1.0123465e-038
-0.025213702 -0.041007869 0.012700303 9.4795347e-039
-0.022927325 -0.041081447 0.012824664 7.8221685e-039
-0.021605771 -0.040854931 0.013707243 7.9136509e-039
-0.024556056 -0.038935274 0.01256393 8.3749836e-039
-0.022952896 -0.039172076 0.013363474 8.0983981e-039
-0.028335359 -0.036260214 0.012595465 1.0678078e-038
-0.02607681 -0.03603372 0.012009746 7.5466691e-039
-0.024806581 -0.036822129 0.012865943 8.5590147e-039
-0.023508746 -0.037109036 0.013255592 8.2820719e-039
-0.029062018 -0.034832664 0.012077272 1.0494753e-038
-0.026989751 -0.034497418 0.012587552 9.8486703e-039
-0.024916176 -0.034774471 0.013117108 8.5590133e-039
-0.023015149 -0.034972005 0.013290123 7.4541119e-039
0.025854023 -0.035407703 0.013677083 1.0124184e-038
0.026926892 -0.034379877 0.013203163 1.0216379e-038
0.028112024 -0.034270331 0.01313083 1.0217453e-038
-0.02850179 -0.033089984 0.012709774 1.0310013e-038
-0.026557541 -0.03295783 0.012774732 8.6512075e-039
-0.025061481 -0.032761257 0.013212294 7.6385018e-039
-0.023169793 -0.033502504 0.013790462 7.1775334e-039
0.02800888 -0.032734331 0.013751326 1.012562e-038
-0.029037111 -0.031085188 0.012478637 9.757195e-039
-0.026700815 -0.031031651 0.012744091 7.8225329e-039
-0.025263127 -0.030991348 0.013617015 7.7299813e-039
0.025460251 -0.031006893 0.012858565 6.8998675e-039
-0.03048189 -0.028593337 0.012818897 1.0217453e-038
-0.028609341 -0.028926278 0.012757318 8.7430486e-039
-0.026902243 -0.029184077 0.01315218 7.8221727e-039
0.024395706 -0.029971775 0.013994647 6.8998675e-039
0.026631199 -0.028958775 0.012773069 6.8998675e-039
-0.030682452 -0.02705935 0.012828834 9.9405044e-039
-0.028868247 -0.02706217 0.012585451 7.9140082e-039
-0.027282078 -0.027124835 0.013152229 7.5455887e-039
-0.025784785 -0.027417874 0.013482174 6.9924233e-039
0.027258664 -0.02692534 0.01341858 6.8087495e-039
-0.030764842 -0.024710637 0.012672747 9.7564733e-039
-0.028991127 -0.025369877 0.012965853 8.0058409e-039
-0.026757136 -0.025051188 0.012720564 7.0849748e-039
0.027802315 -0.024001779 0.013545397 6.809467e-039
0.028594146 -0.0247868 0.012692079 6.809467e-039
-0.032592092 -0.022032902 0.012358321 9.2954937e-039
-0.030501876 -0.023168597 0.012526982 8.6504873e-039
-0.029160451 -0.023365391 0.013026167 8.0058437e-039
-0.027159989 -0.023216385 0.013117946 6.9920618e-039
0.029124185 -0.022398841 0.012980805 6.9009437e-039
-0.03041308 -0.021045692 0.012194647 7.5466621e-039
-0.028970057 -0.02128903 0.012938008 7.269006e-039
-0.027195662 -0.021478858 0.013430907 7.0842588e-039
-0.029126508 -0.019166855 0.01302506 7.1768089e-039
-0.027494099 -0.019666085 0.013371676 7.0853378e-039
0.029113695 -0.019170998 0.012708692 6.7165525e-039
-0.030316142 -0.017203173 0.012396692 7.1764502e-039
-0.029236456 -0.017541546 0.01316045 6.9927792e-039
0.013838941 -0.14662826 0.014325235 5.0732483e-039
0.014972039 -0.14655367 0.014401463 3.1407387e-039
0.016056392 -0.14626032 0.014087133 4.3346043e-039
0.013862558 -0.14520484 0.014408823 8.5687439e-039
0.01523351 -0.1450813 0.014753427 4.2424045e-039
0.016634202 -0.14461882 0.01468775 4.7963013e-039
0.013819079 -0.14390309 0.015437491 3.2228702e-039
0.015412264 -0.1435367 0.015264164 3.0431494e-039
0.017037988 -0.14297624 0.014964897 3.4140829e-039
0.018768284 -0.14269342 0.014834109 7.3774244e-039
0.02099178 -0.14212242 0.014460118 8.2089872e-039
0.017524056 -0.14164351 0.015360593 3.2286141e-039
0.019031804 -0.14096363 0.015029133 4.4282391e-039
0.020851167 -0.14093259 0.014853632 7.7465657e-039
0.023109708 -0.14083175 0.014566163 1.0328761e-038
0.019380245 -0.1395274 0.015244558 2.7680017e-039
0.021088077 -0.13913171 0.015076772 3.7832256e-039
0.022893967 -0.1390993 0.014960608 6.2721489e-039
0.024896039 -0.13894926 0.014961639 8.0238672e-039
0.026543323 -0.1385016 0.014756558 9.3135313e-039
0.021611709 -0.13742791 0.015244314 3.0460235e-039
0.023163961 -0.13703388 0.015073783 3.0460221e-039
0.025031773 -0.13703485 0.015107985 4.7051819e-039
0.026928397 -0.1368437 0.015048499 7.8394746e-039
0.028628731 -0.1370637 0.014975152 8.6688779e-039
0.030762935 -0.13627158 0.01435427 8.3004485e-039
0.023432996 -0.1358051 0.014872109 3.137859e-039
0.025216104 -0.13517439 0.01496017 2.9538251e-039
0.026837172 -0.13490929 0.015074713 3.4144473e-039
0.028740874 -0.13504414 0.014864954 7.1941094e-039
0.030742865 -0.13482444 0.014968939 8.3001024e-039
0.032564607 -0.13485959 0.014569148 7.7476433e-039
0.02709459 -0.13352193 0.015089774 3.0460221e-039
0.029062103 -0.13289474 0.014924273 3.4140857e-039
0.031036288 -0.13311036 0.015032947 6.7327767e-039
0.032813728 -0.13289018 0.014971571 8.8532762e-039
0.034687903 -0.13302039 0.015378259 7.1026382e-039
0.029495303 -0.13177364 0.015406735 3.230056e-039
0.030963195 -0.13099711 0.015089604 3.598477e-039
0.032994147 -0.13092253 0.014974574 7.5625276e-039
0.034850929 -0.13114178 0.014891535 8.7621553e-039
0.031743098 -0.12964641 0.015191598 3.1375003e-039
0.032978378 -0.12899356 0.015043014 3.6910356e-039
0.034930859 -0.12898833 0.014948754 7.009358e-039
0.036749944 -0.12875117 0.014952779 7.7480062e-039
0.038245004 -0.12850192 0.015006077 6.6391307e-039
0.033227682 -0.1273566 0.015050892 3.2289742e-039
0.035045665 -0.12698494 0.014926091 3.1378604e-039
0.037016395 -0.12706798 0.015022478 7.0097139e-039
0.038848214 -0.12708257 0.015086028 8.4830475e-039
0.040696368 -0.12614524 0.014737051 8.9436543e-039
0.032704342 -0.12589401 0.015889455 3.69103e-039
0.035278488 -0.12531558 0.015233625 3.6903083e-039
0.036876358 -0.1251031 0.014895593 4.2434863e-039
0.039059479 -0.12499656 0.014931723 8.0235127e-039
0.040423363 -0.12475431 0.015171075 9.9581832e-039
0.042625546 -0.12447476 0.014148271 7.1926674e-039
0.044633746 -0.12430972 0.015009072 6.088136e-039
0.035865929 -0.12397641 0.015515015 3.3208027e-039
0.037281714 -0.12317511 0.015078346 3.5055583e-039
0.038982578 -0.12288403 0.015087514 4.8888529e-039
0.040883113 -0.12293116 0.01513837 7.6543701e-039
0.042412847 -0.12274166 0.014919343 7.0093692e-039
0.044080015 -0.12257332 0.015803922 6.271451e-039
0.038888149 -0.12118812 0.015052519 3.0445816e-039
0.040812384 -0.12077801 0.014817504 4.3360476e-039
0.042930625 -0.12088685 0.015196474 7.2863064e-039
0.039522819 -0.11940681 0.015198074 3.3208055e-039
0.041106213 -0.11911657 0.015031285 3.4130095e-039
0.042876955 -0.11896424 0.014831627 4.7055532e-039
0.044426892 -0.11872006 0.014844798 6.0884905e-039
0.039392352 -0.11763684 0.015571387 3.4129983e-039
0.041175652 -0.11690655 0.015142136 3.320451e-039
0.043147836 -0.11702156 0.014887719 3.1364269e-039
0.044968873 -0.11712657 0.014846117 4.7973859e-039
0.046607614 -0.11641075 0.014960738 5.5363957e-039
0.041809373 -0.11534978 0.015090835 3.412648e-039
0.042827491 -0.11485557 0.014845654 3.2282525e-039
0.044980064 -0.11492158 0.015165251 3.3219013e-039
0.046667051 -0.11457555 0.014777875 4.7973957e-039
0.041759089 -0.11372002 0.015662368 3.6892293e-039
0.043334004 -0.11316051 0.015139297 3.1360611e-039
0.045035906 -0.11312438 0.0149634 2.6765277e-039
0.04655128 -0.11277894 0.015003519 3.9683497e-039
0.043841135 -0.1112992 0.015272252 2.8594714e-039
0.044934556 -0.11088454 0.014991862 2.5832489e-039
0.046715267 -0.1110395 0.014946848 2.862005e-039
0.048605762 -0.11107153 0.014851982 3.9701574e-039
0.045221139 -0.10903287 0.015133131 2.3073837e-039
0.047081567 -0.10890753 0.014986192 2.3091913e-039
0.048834726 -0.10861449 0.014585176 3.1403939e-039
0.04557094 -0.10709036 0.015198084 2.0311569e-039
0.04704335 -0.10681225 0.014946433 2.0311639e-039
0.049233582 -0.10701817 0.015124873 2.6797773e-039
0.05058264 -0.1065489 0.01441643 3.04892e-039
0.045850214 -0.10520732 0.014998553 1.9396843e-039
0.04725945 -0.10503653 0.015156898 2.1237183e-039
0.048923258 -0.10494395 0.014977157 2.1251616e-039
0.050833251 -0.10482093 0.014956273 2.8656147e-039
0.047007721 -0.10315581 0.015119093 2.2159097e-039
0.049092725 -0.10278399 0.014968153 2.216274e-039
0.050904199 -0.10286363 0.014908075 2.5879432e-039
0.053027507 -0.10282061 0.014924951 3.2354875e-039
0.054117255 -0.10232402 0.014727559 3.6024707e-039
0.047085863 -0.10124338 0.015189051 2.2162768e-039
0.049013797 -0.10103203 0.015209774 2.4010226e-039
0.050941229 -0.10112935 0.014832801 2.4017499e-039
0.052726008 -0.10052132 0.014901772 2.959611e-039
0.048988331 -0.098918341 0.015040377 2.4928539e-039
0.051265914 -0.099065214 0.015060539 2.4013898e-039
0.052529197 -0.09882021 0.014766268 3.0478522e-039
0.049608435 -0.097394571 0.015353227 2.4914162e-039
0.051085714 -0.097053409 0.015094958 2.4921463e-039
0.052807737 -0.096982822 0.014757406 2.7690933e-039
0.049900331 -0.095357671 0.014986927 3.0435096e-039
0.051154744 -0.095192708 0.015077406 3.3197531e-039
0.05304683 -0.095143668 0.015155177 4.4217567e-039
0.054740094 -0.094462059 0.015085647 8.3829023e-039
0.051527172 -0.093304038 0.015360296 5.24793e-039
0.05313129 -0.092839576 0.014919514 6.8105502e-039
0.054911196 -0.093453132 0.014866084 8.9295951e-039
0.056443918 -0.092908204 0.014401769 1.049512e-038
0.053166509 -0.091644041 0.014976829 6.5332584e-039
0.054927915 -0.091385216 0.015075045 8.4657429e-039
-0.0055298684 -0.064748347 0.014789721 1.1324512e-038
-0.0023410879 -0.06471502 0.014229918 1.0862819e-038
-0.0007210492 -0.064887889 0.014796443 1.0954298e-038
0.0010085721 -0.065096989 0.014926892 1.0954661e-038
0.0025224029 -0.064808547 0.014522783 1.0770629e-038
0.0047161188 -0.065159529 0.014610494 1.0862819e-038
0.0064396122 -0.064883828 0.014177175 1.05866e-038
0.0090845283 -0.064790793 0.014180892 1.0678078e-038
-0.0081955269 -0.062786594 0.014613054 1.1047214e-038
-0.0063625481 -0.063209236 0.014621304 1.1232668e-038
-0.0050178887 -0.062707484 0.014377002 9.940859e-039
-0.0028611701 -0.062783606 0.014510116 1.058695e-038
-0.00089980941 -0.062546343 0.014481476 1.0217453e-038
0.0010676211 -0.062220957 0.014935231 1.04944e-038
0.0027163676 -0.062410079 0.014346193 1.0401125e-038
0.005163949 -0.062812597 0.014716348 1.0585515e-038
0.0073024817 -0.06298399 0.01448738 1.0585878e-038
0.009157924 -0.063291267 0.014770931 1.0678794e-038
-0.012884162 -0.060838461 0.014618367 1.1233024e-038
-0.01059854 -0.061193194 0.014059857 1.0863188e-038
-0.0087052677 -0.061212149 0.014729662 1.0678072e-038
-0.0068026073 -0.061946563 0.014036604 9.7553957e-039
-0.004998364 -0.060909636 0.014599706 1.0033063e-038
-0.0028076631 -0.06137621 0.014681536 1.0125615e-038
-0.00084832421 -0.060750835 0.01502059 1.0309288e-038
0.0010227025 -0.060988199 0.01465791 9.9401499e-039
0.0026838398 -0.06091731 0.014854209 1.0124181e-038
0.0044714729 -0.061120644 0.014986129 1.0401485e-038
0.0069617922 -0.060742181 0.014691943 1.00327e-038
0.0086289467 -0.060810752 0.014604961 1.0125257e-038
0.010734545 -0.060994551 0.014800326 1.0493684e-038
0.012364844 -0.06068325 0.014051741 1.0217807e-038
0.01607446 -0.060176171 0.01427245 1.150892e-038
-0.012998962 -0.059135102 0.014824534 1.1140473e-038
-0.010453865 -0.059715517 0.01470556 1.1045431e-038
-0.0084048295 -0.058683127 0.014632795 1.0217094e-038
-0.0067621521 -0.059214521 0.014515537 9.9397884e-039
-0.0051430664 -0.059048481 0.014991475 9.8479557e-039
-0.0028961252 -0.059127018 0.01494673 9.9412219e-039
-0.0012955954 -0.059221849 0.015561012 1.040148e-038
0.00098888739 -0.058845144 0.015077444 9.6642805e-039
0.0031686833 -0.059208736 0.014819689 9.295142e-039
0.005306358 -0.059237935 0.014864887 9.2954979e-039
0.0069131926 -0.058975708 0.014762844 9.2036597e-039
0.0088784648 -0.059073843 0.015045289 1.003306e-038
0.010780087 -0.059485696 0.015385726 1.0493684e-038
0.012955174 -0.058825195 0.01464751 1.0864259e-038
0.015201865 -0.059338294 0.014811999 1.1416725e-038
0.019298781 -0.059455343 0.014087962 1.150857e-038
-0.014292869 -0.056939285 0.014488317 1.1047214e-038
-0.012494497 -0.05678229 0.014482446 1.0401841e-038
-0.011018669 -0.056890361 0.014750343 1.030965e-038
-0.0090707196 -0.056872889 0.014697242 9.8486675e-039
-0.0069140685 -0.056963012 0.014778158 9.5720862e-039
-0.0049815248 -0.057134379 0.014977224 9.2033093e-039
-0.0026337632 -0.056788098 0.015054873 9.0196341e-039
-0.0012334847 -0.056904182 0.014867588 8.7430514e-039
0.0013639963 -0.056968775 0.015134846 8.8352429e-039
0.0030586808 -0.057086937 0.01475213 8.8345226e-039
0.0049327221 -0.057053376 0.015134027 9.3876922e-039
0.0068227681 -0.056896102 0.015072313 9.5717219e-039
0.0088854805 -0.056662209 0.014823985 9.1111053e-039
0.010856757 -0.05685271 0.01489698 9.9405058e-039
0.012564347 -0.057206355 0.015509134 1.0678788e-038
0.014981894 -0.057036299 0.014595773 1.0770987e-038
0.018885035 -0.057812043 0.014395584 1.1416735e-038
-0.016927544 -0.055269994 0.014285405 1.1506397e-038
-0.014471641 -0.054533236 0.014575895 1.0586594e-038
-0.012772097 -0.055000082 0.01488772 1.0217806e-038
-0.011044313 -0.054828484 0.014943396 9.9408646e-039
-0.0090927733 -0.054942228 0.014748948 9.1111095e-039
-0.0072394856 -0.055218559 0.01495542 9.2033065e-039
-0.0049626762 -0.054879528 0.014818792 8.4657429e-039
-0.0029715032 -0.054782312 0.014750255 7.913295e-039
-0.00084768637 -0.054815829 0.015001647 7.9136509e-039
0.00098215695 -0.054785341 0.014903487 8.0054878e-039
0.0030507874 -0.055017196 0.014983292 8.0054878e-039
0.0050745644 -0.054979693 0.014607854 7.8203805e-039
0.0068380246 -0.055550929 0.015124949 8.8341639e-039
0.0088209137 -0.054817736 0.014944861 8.5575826e-039
0.01104785 -0.054772984 0.014456986 8.649774e-039
0.0131082 -0.054779541 0.014593741 1.0032336e-038
0.014837623 -0.054619379 0.014305927 9.5713646e-039
0.016445028 -0.054092716 0.014612636 1.0401121e-038
-0.018514525 -0.05320837 0.014655722 1.1321642e-038
-0.016808338 -0.052815124 0.014664409 1.0770265e-038
-0.014983976 -0.052669711 0.014860186 1.0401844e-038
-0.013103161 -0.052800961 0.014811935 9.5724408e-039
-0.010964054 -0.052866612 0.015059648 8.5586546e-039
-0.0092095472 -0.05295356 0.014905747 8.5593734e-039
-0.0072446028 -0.053192526 0.015053476 8.0980408e-039
-0.0049672546 -0.052974101 0.015171176 8.0980422e-039
-0.0029592845 -0.053014334 0.01520355 7.7292568e-039
-0.00091627723 -0.052928317 0.015271989 7.3608401e-039
0.0010860849 -0.052854352 0.015483234 7.6367067e-039
0.0029768432 -0.052671902 0.01565847 7.7292568e-039
0.0052154055 -0.053319484 0.015384583 7.6363494e-039
0.0070380666 -0.053182296 0.014954656 7.7289023e-039
0.0087528266 -0.052872565 0.015082028 7.9129376e-039
0.011007434 -0.053069029 0.015018182 8.7416081e-039
0.013095608 -0.053013124 0.014756924 8.9267168e-039
0.014788957 -0.053099722 0.014884661 9.5720778e-039
0.016425092 -0.052316591 0.014835513 1.0032337e-038
-0.020550217 -0.050648812 0.014060687 1.0862469e-038
-0.018839363 -0.051144421 0.014924055 1.0955018e-038
-0.016774151 -0.050778188 0.014942132 1.0033779e-038
-0.014827686 -0.050937217 0.014774785 9.2033037e-039
-0.012988598 -0.051110424 0.015027544 9.2025849e-039
-0.011267472 -0.050594758 0.014832437 7.7299785e-039
-0.00917337 -0.050807003 0.015089684 7.8221713e-039
-0.00706218 -0.051181424 0.015400674 7.4537532e-039
-0.0049820719 -0.05122707 0.015468508 7.0853364e-039
-0.0029953471 -0.051581517 0.015306504 7.1771691e-039
-0.0013066601 -0.050699595 0.015778061 7.0856923e-039
0.0018130159 -0.050577886 0.015996352 7.085328e-039
0.0057119802 -0.051724169 0.015720397 8.3742563e-039
0.0074347183 -0.051647156 0.015889456 7.914004e-039
0.0090928376 -0.051221859 0.015579741 7.9129348e-039
0.010906003 -0.051167529 0.015543399 8.3731885e-039
0.012995527 -0.051115159 0.01499861 8.281353e-039
0.014979454 -0.051254775 0.015153252 8.9263623e-039
0.01700308 -0.050690245 0.014646056 9.3866202e-039
0.019324373 -0.050191633 0.014339356 1.0494036e-038
0.020739472 -0.050691634 0.014308788 1.1139056e-038
0.022500996 -0.050596487 0.014916086 1.1232684e-038
-0.018950881 -0.04886378 0.01482224 1.0125616e-038
-0.01701772 -0.048846647 0.014970678 9.2962168e-039
-0.015153678 -0.049124297 0.015020543 8.6508488e-039
-0.013090692 -0.049106788 0.015377891 8.1902308e-039
-0.01079981 -0.048874632 0.015340203 7.8221741e-039
-0.0088674249 -0.048998177 0.015360801 7.1778879e-039
-0.0072654798 -0.049538951 0.015882609 7.4541105e-039
-0.0044806022 -0.049918257 0.015600522 7.0853378e-039
-0.0033162981 -0.049810641 0.01552946 7.0856881e-039
0.00042823702 -0.049841661 0.015776161 7.1775236e-039
0.013219471 -0.049668562 0.01553833 8.3731913e-039
0.015192161 -0.049208313 0.015012927 8.2817104e-039
0.017258301 -0.049010739 0.015129332 8.8345254e-039
0.019026065 -0.048848402 0.01507366 9.8479529e-039
0.020962225 -0.048816234 0.015135898 1.0863185e-038
-0.022427704 -0.046610542 0.014153697 1.0677355e-038
-0.020896699 -0.047208283 0.014737236 1.0309287e-038
-0.018982491 -0.046898413 0.01493324 9.2040226e-039
-0.017170321 -0.046753928 0.01509648 8.2827852e-039
-0.014998637 -0.04684373 0.014782667 7.5455873e-039
-0.012925749 -0.046810504 0.015312572 7.3612002e-039
-0.011091214 -0.047388837 0.015157916 7.1775264e-039
-0.0091169393 -0.047083095 0.0158628 7.3615561e-039
0.014894315 -0.046583205 0.015644561 7.9136439e-039
0.01737047 -0.047466211 0.015196597 8.1902336e-039
0.019361956 -0.047080152 0.014775725 8.6501341e-039
0.020732492 -0.046979722 0.014710304 9.0185537e-039
0.022370588 -0.046895545 0.014052803 1.0401121e-038
-0.020888764 -0.044812009 0.015247329 1.0216733e-038
-0.018928442 -0.044841431 0.014780598 8.2831453e-039
-0.016979342 -0.044880118 0.015263616 7.8221713e-039
-0.015104266 -0.044881791 0.015677879 7.4533902e-039
-0.013313435 -0.045535509 0.015999448 7.3608457e-039
0.019486424 -0.045168068 0.015658971 8.6504901e-039
0.021053214 -0.045097306 0.014971092 8.8345268e-039
0.022408586 -0.044960096 0.014489187 9.0185565e-039
-0.023060184 -0.043132797 0.014480087 9.8490263e-039
-0.021003295 -0.043383498 0.014929537 8.9281546e-039
-0.019025711 -0.042840596 0.015130626 7.8228874e-039
-0.016926194 -0.043196764 0.015173241 7.3615547e-039
-0.015406949 -0.043133494 0.015646048 7.1760957e-039
0.021405384 -0.043069556 0.015345959 8.926714e-039
0.02276173 -0.043137051 0.014675426 8.9270756e-039
0.024289357 -0.043268792 0.014615626 9.7553957e-039
