# .PCD v0.7 - Point Cloud Data file format
VERSION 0.7
FIELDS x y z rgba
SIZE 4 4 4 4
TYPE F F F U
COUNT 1 1 1 1
WIDTH 1006
HEIGHT 1
VIEWPOINT 0 0 0 1 0 0 0
POINTS 1006
DATA ascii
0.031518266 -0.027884675 -0.03473312 12432843
0.037519053 -0.025238171 -0.034148581 12565459
0.042519949 -0.022585019 -0.033614788 12697301
0.042520985 -0.020002823 -0.033345606 13025751
0.042522021 -0.017420623 -0.033076424 13355993
0.042523053 -0.014838429 -0.032807242 13882843
-0.014474505 -0.013605034 -0.035610911 14408924
-0.014473514 -0.011130824 -0.035352986 14673116
-0.014472522 -0.0086566135 -0.035095058 14934496
-0.019471422 -0.006329135 -0.035109635 14933987
-0.019470435 -0.0038643943 -0.034852695 14934754
-0.019469446 -0.0013996579 -0.034595758 15197666
0.047530197 0.0034121056 -0.030647498 15462116
0.047531232 0.0060037756 -0.030377328 15661030
0.047532272 0.0085954526 -0.030107157 15855073
0.047533311 0.011187111 -0.029836988 15525085
0.04753435 0.013778788 -0.029566817 15198175
0.047535386 0.016370449 -0.029296648 15264480
0.047536425 0.018962134 -0.029026477 15395295
0.047537465 0.021553796 -0.028756307 15329501
0.015538963 0.022539508 -0.030299708 15263194
0.0055401064 0.024549752 -0.030604577 15000534
0.015540992 0.027601605 -0.029772006 14802390
0.0055421195 0.029573945 -0.030080827 14276565
0.0055431263 0.032086048 -0.029818952 13817302
0.010544084 0.034896445 -0.029268768 13620440
0.0055451388 0.03711025 -0.0292952 13418415
0.0055461456 0.039622355 -0.029033326 11507591
0.021514639 -0.033357497 -0.033248033 10069924
0.021515656 -0.030815087 -0.032982998 11382968
0.010517078 -0.028405758 -0.033318773 12630205
0.0055182353 -0.025954153 -0.033329982 12696515
0.0005193851 -0.02352149 -0.033343185 12762823
0.00052038784 -0.021018861 -0.033082295 13025483
-0.0094783381 -0.018713001 -0.033375505 13353933
-0.0094773434 -0.016229313 -0.03311659 13682384
-0.01447622 -0.01386296 -0.033136688 14011090
-0.014475228 -0.01138875 -0.032878764 14208212
-0.014474237 -0.0089145396 -0.032620836 14405591
-0.01947313 -0.006586073 -0.032644894 14472155
-0.019472143 -0.0041213324 -0.032387953 14604509
-0.019471155 -0.0016565959 -0.032131016 14603743
-0.02447018 0.00063397567 -0.032159038 14668766
-0.024469197 0.0030892417 -0.031903088 14798813
-0.014468289 0.0059307287 -0.031073285 14929115
-0.014467298 0.0084049422 -0.030815359 14799578
0.042532645 0.013296561 -0.027264034 14670298
-0.014465315 0.013353357 -0.030299509 14670042
-0.014464323 0.015827579 -0.030041583 14669785
-0.014463332 0.018301785 -0.029783657 14603481
-0.0094624162 0.021025946 -0.029232893 14471894
-0.0044614924 0.023769047 -0.028680144 14405332
0.0055393716 0.026799981 -0.027830599 14338766
0.00054044201 0.029033713 -0.027864538 13945545
0.0055413847 0.031824175 -0.027306849 13617867
0.0055423914 0.03433628 -0.027044972 13488334
0.0055433977 0.036848374 -0.026783098 13350824
0.0055444045 0.039360479 -0.026521223 11111298
0.0055454108 0.041872583 -0.026259348 8948359
0.00051163422 -0.038798153 -0.032405879 6383701
0.00051263697 -0.036295522 -0.032144994 7700880
0.021512877 -0.033622533 -0.030705612 9083303
0.00051464234 -0.031290263 -0.031623214 10990015
0.00051564508 -0.028787639 -0.031362329 12893887
0.00051664776 -0.026285008 -0.031101439 12894912
-0.0044821999 -0.023860831 -0.0311251 12893374
-0.0044812006 -0.021367675 -0.0308652 13088443
-0.0094800601 -0.018971913 -0.030891819 13353416
-0.0094790645 -0.016488224 -0.030632904 13487061
-0.014477935 -0.014120884 -0.030662483 13683924
-0.014476944 -0.011646674 -0.030404557 13815507
-0.014475952 -0.0091724638 -0.03014663 13946838
-0.014474961 -0.0066982522 -0.029888706 14078425
-0.019473851 -0.0043782685 -0.029923227 14273746
-0.019472864 -0.0019135321 -0.029666288 14075852
-0.019471876 0.0005512042 -0.029409351 13946324
-0.019470887 0.0030159445 -0.029152412 14013660
-0.014470004 0.0056728045 -0.028599078 14078938
-0.019468913 0.0079454212 -0.028638536 14078681
-0.019467926 0.010410164 -0.028381597 14146010
-0.019466938 0.012874901 -0.028124658 14079707
-0.014466039 0.015569654 -0.027567375 14014163
-0.014465047 0.018043861 -0.027309449 13875658
-0.0094641382 0.020767035 -0.026749209 13747663
-0.0044632205 0.023509147 -0.02618699 13815763
0.00053770468 0.0262702 -0.025622793 13880527
0.00053870742 0.028772825 -0.025361905 13683403
0.0005397101 0.031275451 -0.025101017 13487052
0.00054071285 0.033778086 -0.024840128 13356493
0.00054171553 0.03628071 -0.02457924 13289908
0.00054271822 0.038783345 -0.024318352 10715036
0.0055436697 0.04161071 -0.023747243 8224661
0.00050989963 -0.039059039 -0.029903254 6252121
0.00051090232 -0.036556408 -0.029642366 7237009
-0.0044879233 -0.034093354 -0.029671546 8287659
-0.0044869245 -0.0316002 -0.029411646 10665414
-0.0044859257 -0.02910704 -0.029151745 13026754
-0.0044849268 -0.026613886 -0.028891845 11581374
-0.004483928 -0.024120729 -0.028631944 10201525
-0.0094827767 -0.021714509 -0.028667038 11121836
-0.0094817812 -0.019230826 -0.028408127 12107715
-0.0094807865 -0.016747138 -0.028149212 13029083
-0.014479649 -0.014378809 -0.028188268 13946327
-0.014478658 -0.011904599 -0.027930342 14077907
-0.014477666 -0.0094303889 -0.027672416 14211285
-0.019476546 -0.007099947 -0.02771542 13290456
-0.019475559 -0.0046352064 -0.027458483 12370888
-0.019474572 -0.0021704701 -0.027201544 11387065
-0.019473584 0.00029426627 -0.026944607 10468810
-0.019472597 0.0027590066 -0.026687669 12110812
-0.019471608 0.0052237464 -0.02643073 13752794
-0.019470621 0.0076884832 -0.026173793 14080472
-0.019469634 0.010153227 -0.025916854 14473690
-0.014468745 0.012837508 -0.025351087 14014429
-0.014467753 0.015311729 -0.025093161 13555148
-0.014466763 0.017785937 -0.024835235 12175548
-0.014465771 0.020260151 -0.024577308 10796231
-0.0094648646 0.022991806 -0.024006603 12371411
-0.009463869 0.025475491 -0.02374769 13947088
-0.0044629504 0.028235558 -0.023174033 13683149
-0.0044619516 0.030728707 -0.022914132 13418956
-0.0044609527 0.033221867 -0.022654232 14208716
-0.0044599539 0.035715021 -0.022394331 14998465
0.00054098363 0.03852246 -0.021815727 13680822
0.00054198632 0.041025084 -0.021554839 12428708
0.00054298906 0.043527719 -0.021293949 12427922
0.00054399174 0.046030343 -0.021033062 12492684
0.00054499449 0.04853297 -0.020772174 12228230
0.00050916773 -0.036817297 -0.027139733 6838092
-0.0044896514 -0.034353253 -0.027178384 7496830
-0.0044886526 -0.031860098 -0.026918484 10340784
0.00051217584 -0.029309412 -0.02635707 13222838
-0.0044866549 -0.026873786 -0.026398683 10328252
-0.0044856556 -0.02438063 -0.026138783 7504043
-0.0094844978 -0.021973422 -0.026183354 9136283
-0.0094835032 -0.019489739 -0.025924442 10859964
-0.014482356 -0.017110946 -0.025971981 12505564
-0.014481365 -0.014636735 -0.025714055 14209497
-0.014480373 -0.012162524 -0.025456129 14340566
-0.014479382 -0.009688315 -0.025198203 14473420
-0.019478254 -0.007356884 -0.025250684 12502723
-0.019477267 -0.0048921434 -0.024993747 10527414
-0.01947628 -0.0024274071 -0.024736809 8748714
-0.019475292 3.7329261e-05 -0.024479872 6983611
-0.019474305 0.0025020696 -0.024222933 10199499
-0.019473318 0.0049668094 -0.023965994 13421523
-0.019472329 0.0074315462 -0.023709057 14150618
-0.019471342 0.0098962905 -0.023452118 14866652
-0.01447046 0.012579582 -0.022876874 13951711
-0.014469469 0.015053804 -0.022618948 13091261
-0.014468477 0.017528011 -0.022361021 10442652
-0.014467486 0.020002225 -0.022103095 7899575
-0.0094665857 0.022732893 -0.021522919 10927315
-0.0094655911 0.025216578 -0.021264005 14013902
-0.0044646785 0.027975658 -0.020680871 13682890
0.00053624087 0.030753678 -0.020095758 13420754
-0.0044626808 0.032961968 -0.02016107 15068378
0.0005382463 0.035758935 -0.019573981 16709082
0.00053924898 0.03826157 -0.019313093 16711386
0.00054025173 0.040764194 -0.019052206 16710353
0.00054125441 0.043266829 -0.018791316 16512968
0.00054225716 0.045769453 -0.018530428 16379075
-0.014492992 -0.039636776 -0.025819102 6507554
-0.014492001 -0.037162565 -0.025561178 6836231
-0.0044913795 -0.034613151 -0.024685236 7165009
-0.0044903806 -0.032119997 -0.024425335 10010267
-0.0044893818 -0.029626839 -0.024165435 12829098
-0.004488383 -0.027133685 -0.023905534 9406394
-0.0094872145 -0.02471602 -0.023958582 5989282
-0.0094862198 -0.022232335 -0.023699669 8151435
-0.014485062 -0.019843081 -0.023755698 10267572
-0.014484071 -0.01736887 -0.023497773 12375774
-0.014483079 -0.01489466 -0.023239847 14473179
-0.014482088 -0.012420448 -0.022981921 14145497
-0.014481097 -0.0099462392 -0.022723995 13818051
-0.014480106 -0.0074720271 -0.022466071 11380910
-0.019478975 -0.0051490804 -0.022529012 8936869
-0.019477988 -0.0026843443 -0.022272073 8154012
-0.019477 -0.00021960797 -0.022015136 7436715
-0.019476013 0.0022451323 -0.021758197 9735611
-0.014475149 0.0048990296 -0.021176443 12107212
-0.019474039 0.0071746092 -0.021244321 13690589
-0.014473166 0.0098474501 -0.020660592 15194335
-0.014472174 0.012321658 -0.020402666 14084321
-0.014471184 0.01479588 -0.02014474 13020846
-0.014470193 0.017270086 -0.019886814 8858748
-0.014469201 0.019744301 -0.019628888 4739496
-0.0094683068 0.02247398 -0.019039234 9550292
-0.0044674054 0.025222596 -0.018447623 14277581
-0.0044664065 0.027715759 -0.018187722 13948359
0.00053450628 0.03049279 -0.017593132 13553624
0.00053550897 0.032995425 -0.017332243 14343401
0.00053651165 0.035498049 -0.017071355 15138291
0.0005375144 0.038000684 -0.016810467 15072766
0.00053851708 0.040503308 -0.01654958 15007230
0.00053951982 0.043005943 -0.01628869 14941694
0.00054052251 0.045508567 -0.016027803 14941690
0.0005056985 -0.037339069 -0.022134483 6833433
0.00050670118 -0.034836441 -0.021873595 6906456
-0.0044921087 -0.032379899 -0.021932174 9680023
-0.0044911099 -0.029886739 -0.021672273 12490136
-0.004490111 -0.027393585 -0.021412373 8484506
-0.0094889356 -0.024974931 -0.021474905 4548751
-0.0094879409 -0.022491246 -0.021215992 7101316
-0.014486777 -0.020101005 -0.021281485 9737896
-0.014485786 -0.017626794 -0.02102356 12245964
-0.014484794 -0.015152584 -0.020765634 14734278
-0.014483803 -0.012678375 -0.020507708 13945537
-0.014482812 -0.010204163 -0.020249782 13220492
-0.019481672 -0.0078707589 -0.020321205 10259287
-0.019480685 -0.0054060183 -0.020064268 7358803
-0.019479696 -0.0029412822 -0.019807329 7624526
-0.019478709 -0.00047654589 -0.019550392 7891030
-0.014477856 0.0021668936 -0.018960156 9337438
-0.014476864 0.0046411045 -0.018702229 10854033
-0.014475873 0.0071153189 -0.018444303 13230532
-0.014474881 0.0095895259 -0.018186379 15588041
-0.01447389 0.012063733 -0.017928453 14282446
-0.0094730137 0.014764007 -0.017332297 12947879
-0.009472019 0.017247692 -0.017073384 7274880
-0.0094710235 0.019731384 -0.01681447 1662108
-0.0094700288 0.022215068 -0.016555557 8107705
-0.0044691334 0.024962695 -0.015954461 14602179
-0.0044681346 0.027455859 -0.01569456 14146509
0.00053277164 0.030231902 -0.015090507 13749458
-0.0044661369 0.032442167 -0.015174759 13684183
0.00053477706 0.035237163 -0.014568731 13617371
0.00053577975 0.037739798 -0.014307844 13419488
0.00053678249 0.040242422 -0.014046956 13288925
0.00053778518 0.042745057 -0.013786066 13420762
0.00053878792 0.045247681 -0.013525179 13553883
0.00053979061 0.047750309 -0.013264291 14604764
0.0055027558 -0.040085908 -0.019566761 6709302
0.005503762 -0.037573803 -0.019304886 7825451
0.0055047688 -0.035061702 -0.019043012 8876127
0.00050596928 -0.032594699 -0.01911008 10137491
0.00050697196 -0.030092074 -0.018849192 11370886
-0.0044918391 -0.027653484 -0.018919224 7955066
-0.0094906576 -0.025233842 -0.018991221 4605051
-0.009489662 -0.022750158 -0.018732307 6443389
-0.014488492 -0.020358929 -0.018807277 8225180
-0.0144875 -0.017884718 -0.018549353 10922171
-0.014486509 -0.015410509 -0.018291427 13684914
-0.014485518 -0.012936299 -0.018033501 13287849
-0.014484527 -0.010462089 -0.017775575 12950613
-0.014483536 -0.0079878774 -0.01751765 10060289
-0.019482393 -0.0056629558 -0.017599532 7222529
-0.014481553 -0.0030394525 -0.017001798 7422465
-0.014480561 -0.00056524161 -0.016743872 7622401
-0.01447957 0.0019089691 -0.016485948 9071105
-0.014478578 0.0043831798 -0.016228022 10518358
-0.014477587 0.0068573942 -0.015970096 12503724
-0.014476596 0.0093316007 -0.015712172 14474675
-0.014475605 0.011805808 -0.015454246 11905467
-0.0094747357 0.014505095 -0.014848614 9336223
-0.0094737401 0.01698878 -0.014589701 6647428
-0.0094727455 0.019472472 -0.014330787 4024209
-0.0094717499 0.021956157 -0.014071873 8096927
-0.0044708615 0.024702797 -0.013461312 12240057
-0.0044698627 0.02719596 -0.013201411 13097940
0.00053103705 0.029971017 -0.012587881 13880012
-0.004467865 0.032182269 -0.01268161 13288133
0.00053304248 0.034976274 -0.012066105 12761795
0.00053404516 0.037478909 -0.011805216 12037058
0.00053504785 0.039981533 -0.011544328 11312572
0.00053605059 0.042484168 -0.011283441 11049910
0.00053705327 0.044986792 -0.011022553 10787260
0.00053805602 0.04748942 -0.010761665 11250114
0.0055010146 -0.040347785 -0.017054658 6645308
0.0055020209 -0.03783568 -0.016792782 8747585
0.0055030272 -0.035323579 -0.016530907 10916464
0.00050423463 -0.032855585 -0.016607447 10594976
0.00050523737 -0.030352961 -0.016346559 10258060
0.00050624006 -0.02785033 -0.016085671 7485304
-0.0044925679 -0.025420228 -0.016166162 4734831
-0.009491384 -0.023009071 -0.016248623 5719910
-0.0094903884 -0.020525388 -0.015989712 6781571
-0.014489216 -0.018142644 -0.016075138 9668001
-0.014488224 -0.015668433 -0.015817212 12633004
-0.014487233 -0.013194224 -0.015559287 12630456
-0.014486241 -0.010720014 -0.015301362 12692846
-0.01448525 -0.0082458025 -0.015043436 9861412
-0.014484259 -0.0057715881 -0.01478551 7100178
-0.014483267 -0.0032973776 -0.014527584 7214849
-0.014482277 -0.00082316675 -0.014269659 7364892
-0.014481285 0.001651044 -0.014011733 8805175
-0.014480294 0.0041252547 -0.013753808 10263671
-0.014479302 0.0065994691 -0.013495882 11842488
-0.014478311 0.0090736756 -0.013237957 13419932
-0.01447732 0.011547883 -0.012980032 9531521
-0.0094764568 0.014246183 -0.01236493 5723527
-0.0094754621 0.016729867 -0.012106016 6044557
-0.0094744666 0.019213559 -0.011847102 6383244
-0.0094734719 0.021697244 -0.011588189 8151948
-0.0044725896 0.024442896 -0.010968151 9939631
0.00052829972 0.027207503 -0.010346135 11983826
0.0005293024 0.029710129 -0.010085247 14077126
0.00053030514 0.03221276 -0.0098243598 12958138
0.00053130783 0.034715388 -0.0095634721 11908010
0.00053231051 0.037218023 -0.0093025826 10592409
0.00053331326 0.039720647 -0.0090416949 9343389
0.00053431594 0.042223282 -0.0087808073 8684448
0.00053531869 0.044725906 -0.0085199196 8093344
0.00053632137 0.047228534 -0.0082590319 7895713
0.00053732411 0.049731165 -0.0079981433 7767464
0.0054992731 -0.040609658 -0.014542562 6450242
0.0055002798 -0.038097553 -0.014280687 8882775
0.0055012861 -0.035585452 -0.014018811 11315330
0.0055022929 -0.033073351 -0.013756936 11317933
0.00050350273 -0.030613849 -0.013843934 11373458
0.00050450547 -0.028111218 -0.013583045 8278647
-0.0044942959 -0.025680128 -0.013673005 5190499
-0.0094931051 -0.023267983 -0.01376494 5853263
-0.0094921105 -0.0207843 -0.013506027 6452075
-0.01449093 -0.018400569 -0.013600932 9605255
-0.014489939 -0.015926357 -0.013343006 12826279
-0.014488948 -0.013452148 -0.01308508 13220551
-0.014487957 -0.010977938 -0.012827155 13614983
-0.014486965 -0.0085037267 -0.01256923 11770952
-0.014485974 -0.0060295123 -0.012311304 9926948
-0.014484983 -0.0035553018 -0.012053378 9532929
-0.014483991 -0.001081091 -0.011795453 9204535
-0.014483 0.0013931197 -0.011537527 10786414
-0.014482008 0.0038673303 -0.011279602 12434073
-0.014481017 0.0063415449 -0.011021676 12891332
-0.014480026 0.0088157514 -0.01076375 13348486
-0.014479035 0.011289959 -0.010505825 9661768
-0.0094781788 0.013987269 -0.009881245 5908079
-0.0094771832 0.016470956 -0.0096223317 6245015
-0.0094761886 0.018954648 -0.0093634175 6579848
-0.009475193 0.021438332 -0.0091045042 8348793
-0.0044743177 0.024182996 -0.0084749954 10129572
-0.0044733188 0.026676159 -0.008215094 12049360
0.00052756781 0.029449241 -0.0075826226 13881280
-0.0044713211 0.031662472 -0.0076952931 12825520
0.00052957318 0.034454502 -0.0070608468 11709840
0.00053057593 0.036957137 -0.0067999582 10654577
0.00053157861 0.039459761 -0.0065390705 9659262
0.00053258135 0.041962396 -0.0062781819 9463691
0.00053358404 0.04446502 -0.0060172942 9333893
0.0055345008 0.047313899 -0.0053769206 9201024
0.0055355076 0.049825981 -0.0051150476 9133949
0.005497532 -0.040871534 -0.012030459 6317906
0.0054985387 -0.03835943 -0.011768584 9017981
0.005499545 -0.035847329 -0.011506708 11709336
0.0055005518 -0.033335228 -0.011244833 12106420
0.00050176814 -0.030874737 -0.011341301 12560281
0.00050277082 -0.028372105 -0.011080412 9137790
-0.004496024 -0.025940029 -0.01117985 5727347
-0.0094948271 -0.023526896 -0.011281256 5921384
-0.0094938315 -0.021043213 -0.011022342 6192005
-0.0094928369 -0.018559525 -0.010763429 9608355
-0.014491654 -0.016184283 -0.010868791 13028028
-0.014490663 -0.013710073 -0.010610865 13820373
-0.014489671 -0.011235863 -0.01035294 14604975
-0.01448868 -0.0087616518 -0.010095015 13685642
-0.014487688 -0.0062874374 -0.0098370891 12753733
-0.014486698 -0.0038132269 -0.009579163 11869697
-0.014485706 -0.0013390161 -0.0093212379 11050065
-0.014484715 0.0011351946 -0.0090633119 12835489
-0.014483724 0.0036094051 -0.0088053867 14670774
-0.014482732 0.0060836198 -0.0085474607 14015691
-0.014481741 0.0085578263 -0.0082895355 13350811
-0.014480749 0.011032034 -0.0080316104 9726827
-0.0094798999 0.013728357 -0.0073975599 6185596
-0.0094789052 0.016212042 -0.0071386467 6510990
-0.0094779097 0.018695734 -0.0068797325 6840211
-0.009476915 0.021179419 -0.0066208197 8611225
-0.0044760457 0.023923095 -0.0059818402 10399669
0.00052483048 0.026685728 -0.005340877 12049618
0.00052583317 0.029188354 -0.0050799893 13749441
0.00052683591 0.031690989 -0.0048191012 12627377
0.00052783859 0.034193613 -0.0045582135 11578523
0.00052884128 0.036696248 -0.0042973249 10782341
0.00052984402 0.039198872 -0.0040364373 9997711
0.00053084671 0.041701507 -0.0037755487 10261658
0.00053184945 0.044204131 -0.003514661 10589589
0.00053285214 0.046706758 -0.0032537733 10590096
0.0055337665 0.049564105 -0.0026029442 10589585
0.01049556 -0.041120674 -0.0091544837 5792355
0.0054967976 -0.038621303 -0.0092564803 8688035
0.0054978039 -0.036109202 -0.0089946045 11513519
0.0054988102 -0.033597101 -0.0087327296 12239291
0.00050003349 -0.031135622 -0.008838675 12895136
0.00050103624 -0.028632991 -0.0085777864 10388102
-0.0044977521 -0.026199928 -0.0086866943 7963780
-0.0044967532 -0.023706771 -0.0084267939 8094594
-0.0094955536 -0.021302124 -0.0085386652 8225696
-0.009494558 -0.018818436 -0.008279752 11059903
-0.0094935633 -0.016334755 -0.0080208397 13950929
-0.014492378 -0.013967998 -0.0081366515 13949923
-0.014491387 -0.011493788 -0.0078787263 14014424
-0.014490395 -0.0090195769 -0.0076208008 13948109
-0.014489404 -0.0065453625 -0.0073628747 13811047
-0.014488412 -0.0040711518 -0.0071049491 13418753
-0.014487421 -0.0015969414 -0.006847024 13026666
-0.014486429 0.00087726931 -0.0065890984 13423572
-0.014485438 0.00335148 -0.0063311728 13883603
-0.014484447 0.0058256947 -0.0060732467 14081746
-0.014483456 0.0082999012 -0.0058153216 14270896
-0.014482465 0.010774109 -0.0055573964 11246735
-0.014481473 0.01324833 -0.0052994699 8288138
-0.014480482 0.015722537 -0.0050415448 8615301
-0.0094796317 0.018436823 -0.0043960554 8942751
-0.0094786361 0.020920508 -0.0041371426 10453946
-0.0044777738 0.023663197 -0.003488685 12046023
0.00052309583 0.026424842 -0.0028382514 12831956
0.00052409858 0.028927468 -0.0025773637 13552323
0.00052510126 0.031430099 -0.0023164754 12562099
0.00052610401 0.033932727 -0.0020555877 11512742
0.00052710669 0.036435362 -0.001794699 11318169
0.00052810938 0.038937986 -0.0015338113 11058081
0.00052911212 0.041440621 -0.0012729227 11255209
0.0005301148 0.043943245 -0.0010120351 11452325
0.00053111755 0.046445873 -0.00075114745 11387041
0.010493812 -0.041383538 -0.0066329096 5331037
0.010494823 -0.038861964 -0.0063700466 8358303
0.0054960628 -0.036371078 -0.006482508 11380904
0.0054970691 -0.033858977 -0.0062206327 12306610
0.0004982989 -0.031396512 -0.0063360417 13286806
0.00049930159 -0.028893879 -0.0060751541 11704187
-0.0044994801 -0.026459828 -0.0061935396 10191228
-0.0044984813 -0.023966672 -0.0059336391 10258813
-0.0044974824 -0.021473516 -0.0056737387 10324391
-0.00949628 -0.019077348 -0.005796067 12577234
-0.0094952844 -0.016593667 -0.0055371542 14867151
-0.0094942898 -0.014109982 -0.0052782409 14143437
-0.0094932942 -0.0116263 -0.0050193281 13488847
-0.01449211 -0.0092775021 -0.0051465868 14210769
-0.014491118 -0.0068032877 -0.0048886607 14931617
-0.014490128 -0.004329077 -0.0046307351 14931570
-0.0094893137 -0.0016915652 -0.003983676 14995874
-0.014488145 0.00061934418 -0.0041148844 14011858
-0.0094873235 0.0032758012 -0.0034658499 13096659
-0.014486162 0.0055677695 -0.0035990328 14147795
-0.014485171 0.008041976 -0.0033411076 15192508
-0.014484179 0.010516183 -0.0030831825 12763812
-0.014483188 0.012990405 -0.0028252557 10394783
-0.014482196 0.015464611 -0.0025673306 10725531
-0.0094813528 0.018177912 -0.001912371 11052199
-0.0094803581 0.020661596 -0.001653458 12362164
-0.0044795019 0.023403296 -0.00099552982 13752004
0.00052136125 0.026163954 -0.0003356183 13553364
0.00052236393 0.02866658 -7.4730633e-05 13420481
0.00052336667 0.031169213 0.00018615773 12431278
0.00052436936 0.033671837 0.0004470454 11512747
0.00052537204 0.036174472 0.00070793397 11842471
0.00052637479 0.038677096 0.00096882164 12171434
0.00052737747 0.041179731 0.0012297103 12237486
0.00052838022 0.043682355 0.001490598 12302764
0.010492064 -0.041646402 -0.0041113356 5066584
0.010493075 -0.039124828 -0.0038484726 7699611
0.0054943217 -0.036632951 -0.0039704042 10265506
0.005495328 -0.03412085 -0.0037085291 11316649
0.0054963348 -0.031608749 -0.0034466535 12367757
0.000497567 -0.029154766 -0.0035725283 10787441
0.00049856969 -0.026652137 -0.0033116401 9207413
-0.0045002094 -0.024226571 -0.0034404844 9471609
-0.0044992105 -0.021733414 -0.0031805839 9736111
-0.0044982117 -0.019240258 -0.0029206835 12120293
-0.0094970055 -0.01685258 -0.0030534696 14538190
-0.0094960108 -0.014368895 -0.0027945563 10861495
-0.0094950153 -0.011885213 -0.0025356435 7184838
-0.0094940206 -0.0094015282 -0.0022767305 9812693
-0.009493025 -0.0069178436 -0.0020178172 12506076
-0.0094920304 -0.0044341628 -0.0017589045 13884900
-0.0094910348 -0.0019504776 -0.0014999914 15263706
-0.014489859 0.00036141978 -0.0016406777 13811921
-0.0094890445 0.0030168886 -0.00098216545 12366803
-0.014487877 0.0053098449 -0.0011248261 13754581
-0.014486886 0.0077840518 -0.00086690113 15197383
-0.014485894 0.010258259 -0.000608976 13156282
-0.014484903 0.012732481 -0.00035104933 11112885
-0.014483912 0.015206687 -9.312421e-05 11117489
-0.0094830738 0.017918998 0.00057131349 11182255
-0.0094820792 0.020402683 0.00083022652 12423598
-0.0044812299 0.023143398 0.0014976251 13622977
0.0005196266 0.025903067 0.0021670074 13488853
0.00052062934 0.028405692 0.0024278951 13354431
0.00052163203 0.030908326 0.0026887832 12431018
0.00052263471 0.033410951 0.0029496709 11578288
0.00052363746 0.035913587 0.0032105595 11842742
0.00052464014 0.038416211 0.0034714472 12170676
0.0055255233 0.041242182 0.0041477336 12236211
0.0054905675 -0.041919034 -0.0019820442 4869450
0.0054915738 -0.039406929 -0.001720169 7041155
0.0054925801 -0.036894828 -0.0014582934 9212548
0.0054935869 -0.034382727 -0.0011964181 10329477
0.0054945932 -0.031870626 -0.00093454245 11447678
0.00049583236 -0.029415654 -0.0010699023 9851510
0.0004968351 -0.026913024 -0.00080901448 8289126
-0.0045019374 -0.024486471 -0.00094732177 8717654
-0.0045009386 -0.021993315 -0.0006874213 9205408
-0.0044999397 -0.019500159 -0.0004275208 11729131
-0.0094987275 -0.017111493 -0.00056978507 14207430
-0.0094977319 -0.014627807 -0.0003108719 7553185
-0.0094967373 -0.012144125 -5.1959105e-05 937642
-0.0094957417 -0.0096604405 0.00020695404 5463475
-0.009494747 -0.0071767559 0.00046586726 10078161
-0.0094937515 -0.0046930751 0.00072477997 12778735
-0.0094927568 -0.0022093898 0.00098369317 15522779
-0.0094917612 0.00027429502 0.0012426063 13612231
-0.0094907666 0.0027579763 0.0015015191 11717323
-0.014489592 0.0050519197 0.0013493879 13427151
-0.0144886 0.0075261267 0.0016073129 15193775
-0.014487609 0.010000334 0.0018652381 13483407
-0.014486617 0.012474556 0.0021231649 11840931
-0.014485626 0.014948762 0.0023810901 11574967
-0.014484636 0.017422978 0.0026390159 11374764
-0.0094838003 0.02014377 0.0033139111 12419745
-0.0094828056 0.022627454 0.0035728244 13554360
0.00051789201 0.025642179 0.0046696328 13424335
0.0005188947 0.028144805 0.0049305204 13352639
0.00051989744 0.030647438 0.005191409 12496559
0.00052090012 0.033150066 0.0054522967 11643826
0.00052190281 0.035652701 0.0057131853 11908789
0.00052290555 0.038155325 0.005974073 12236468
0.0055237822 0.040980306 0.0066598444 12236724
0.005488826 -0.042180907 0.00053003704 6573116
0.0054898327 -0.039668802 0.00079191237 8023403
0.005490839 -0.037156701 0.0010537879 9535846
0.0054918458 -0.0346446 0.0013156632 10725218
0.0054928521 -0.032132499 0.0015775388 11904111
0.00049409777 -0.029676542 0.0014327309 11112060
0.00049510045 -0.027173912 0.0016936188 10385496
-0.0045036655 -0.024746371 0.0015458406 10775348
-0.0045026666 -0.022253215 0.0018057411 11165330
-0.0045016678 -0.019760059 0.0020656416 11591921
-0.0095004486 -0.017370405 0.0019138996 12041918
-0.0094994539 -0.014886719 0.0021728128 6703243
-0.0094984584 -0.012403037 0.0024317256 1395854
-0.0094974637 -0.0099193528 0.0026906386 5399954
-0.0094964681 -0.0074356683 0.0029495519 9354182
-0.0094954735 -0.0049519874 0.0032084647 11716090
-0.0094944779 -0.0024683024 0.0034673777 14143707
-0.0094934832 1.5382586e-05 0.003726291 12689853
-0.0094924876 0.0024990637 0.0039852038 11301571
-0.014491307 0.0047939955 0.0038235947 12492234
-0.014490316 0.0072682025 0.0040815193 13748375
-0.014489324 0.009742409 0.0043394445 12827749
-0.014488333 0.01221663 0.0045973714 11941777
-0.014487341 0.014690837 0.0048552966 11807166
-0.0094865169 0.017401174 0.0055386829 11672489
-0.0094855223 0.019884858 0.0057975957 12688277
0.00051515468 0.022878665 0.0069113784 13617071
0.00051615736 0.025381291 0.007172266 13420490
0.00051716011 0.027883917 0.0074331537 13285567
0.00051816279 0.03038655 0.0076940423 12497589
0.0055190213 0.033182129 0.008386299 11774901
0.0055200276 0.035694234 0.0086481748 12040373
0.0055210344 0.038206339 0.0089100506 12237237
0.015485542 -0.044958238 0.0036007608 8488270
0.0054870849 -0.042442784 0.003042148 8353892
0.0054880916 -0.039930679 0.0033040233 9071483
0.0054890979 -0.037418578 0.0035658989 9868676
0.0054901047 -0.034906477 0.0038277742 11121293
0.00049136044 -0.032440059 0.003674468 12363912
0.00049236312 -0.029937427 0.0039353562 12427139
-0.0045063924 -0.027499426 0.0037790879 12547203
-0.0045053936 -0.02500627 0.0040389886 12831363
-0.0045043947 -0.022513114 0.0042988891 13158828
-0.0045033959 -0.020019958 0.0045587895 11520212
-0.0095021706 -0.017629318 0.0043975841 9931661
-0.009501175 -0.015145632 0.0046564974 5918790
-0.0095001804 -0.01266195 0.0049154102 1924679
-0.0094991848 -0.010178265 0.0051743235 5270857
-0.0094981901 -0.0076945811 0.0054332362 8689812
-0.0094971946 -0.0052109002 0.005692149 10738912
-0.0094961999 -0.0027272147 0.0059510623 12762548
-0.0094952043 -0.00024352984 0.0062099756 11817609
-0.0094942097 0.0022401514 0.0064688884 10968213
-0.014493021 0.0045360704 0.0062978086 11626400
-0.01449203 0.0070102774 0.0065557333 12307615
-0.014491039 0.0094844839 0.0068136584 12237981
-0.014490047 0.011958705 0.0070715854 12164518
-0.014489057 0.014432912 0.0073295105 12091055
-0.009488239 0.01714226 0.008022367 12097967
-0.0094872434 0.019625945 0.0082812803 12891567
0.00051342003 0.02261778 0.0094140042 13745853
0.00051442278 0.025120405 0.0096748918 13486028
0.00051542546 0.027623031 0.0099357795 13221824
0.0055162734 0.030408159 0.010636535 12564405
0.0055172802 0.032920253 0.01089841 11975093
0.0055182865 0.035432357 0.011160286 12106678
0.0055192932 0.037944462 0.011422162 12302775
0.015483788 -0.045222089 0.0061318125 9865102
0.0054853437 -0.042704657 0.0055542514 9733004
0.0054863505 -0.040192552 0.0058161267 10256011
0.0054873568 -0.037680451 0.0060780025 10726049
0.0004886231 -0.035203572 0.0059162136 11582136
0.00048962579 -0.032700948 0.0061771013 12369057
0.00049062853 -0.030198315 0.0064379894 11638411
-0.0045081205 -0.027759327 0.0062722438 10907823
-0.0045071216 -0.025266171 0.0065321443 12030675
-0.0045061228 -0.022773014 0.0067920447 13219269
-0.0045051239 -0.020279858 0.0070519452 11451064
-0.0095038917 -0.017888229 0.0068812612 9722204
-0.009502897 -0.015404543 0.0071401745 6637569
-0.0095019015 -0.012920862 0.0073990873 3569153
-0.0095009068 -0.010437177 0.0076580006 5010945
-0.0094999112 -0.007953492 0.0079169134 6452835
-0.0094989166 -0.0054698116 0.0081758257 9474246
-0.009497921 -0.0029861263 0.008434739 12430222
-0.0094969263 -0.00050244149 0.0086936522 12362838
-0.0094959307 0.0019812398 0.0089525646 12295526
-0.014494737 0.0042781453 0.008772023 12760951
-0.014493745 0.0067523522 0.0090299482 13291942
-0.014492754 0.0092265587 0.0092878733 12766166
-0.014491763 0.01170078 0.0095457993 12306107
-0.014490771 0.014174987 0.0098037245 12350881
-0.00948996 0.016883349 0.010506044 12441781
-0.0094889654 0.019367034 0.010764957 13097418
0.00051168544 0.022356892 0.011916637 13818572
0.00051268813 0.024859518 0.012177525 13486030
0.00051369087 0.027362144 0.012438413 13158082
0.0055145323 0.030146284 0.013148638 12695478
0.0055155391 0.03265838 0.013410513 12236982
0.0055165454 0.035170484 0.013672389 12303031
0.0055175521 0.037682589 0.013934265 12368569
0.015481019 -0.048016991 0.0083990069 11444378
0.015482034 -0.04548594 0.0086628571 11312794
0.0054836026 -0.04296653 0.0080663478 11179925
0.0054846089 -0.040454425 0.0083282227 11374993
0.00048588577 -0.03796709 0.0081579443 11645606
0.00048688849 -0.035464458 0.008418832 12042940
0.0054876287 -0.032918122 0.0091138491 12429697
0.00048889389 -0.030459201 0.0089406073 10813766
-0.0045098485 -0.028019227 0.0087653985 9264240
-0.0045088497 -0.025526071 0.009025299 11299994
-0.0095076039 -0.02311451 0.0088471193 13348776
-0.0045068515 -0.020539759 0.0095450999 11447734
-0.0095056137 -0.018147141 0.0093649449 9531739
-0.0095046181 -0.015663456 0.0096238581 7356417
-0.0095036235 -0.013179774 0.0098827714 5273089
-0.0095026279 -0.01069609 0.010141685 4742913
-0.0095016332 -0.0082124043 0.010400598 4288086
-0.014500417 -0.0058766259 0.010214527 8231340
-0.009499643 -0.0032450387 0.010918424 12168349
-0.014498434 -0.00092820451 0.010730378 12894349
-0.014497443 0.0015460062 0.010988303 13614487
-0.014496451 0.0040202206 0.01124623 13941410
-0.01449546 0.0064944276 0.011504155 14270885
-0.014494468 0.0089686345 0.01176208 13355433
-0.014493478 0.011442856 0.012020006 12426109
-0.014492487 0.013917062 0.012277931 12545361
-0.0094916821 0.016624438 0.012989729 12753284
-0.0094906865 0.019108122 0.013248642 13354680
0.0005099508 0.022096006 0.014419256 13944768
0.00051095354 0.024598632 0.014680143 13551817
0.00051195623 0.027101258 0.014941031 13157569
0.0055127912 0.029884409 0.015660737 12826808
0.005513798 0.032396507 0.015922612 12499384
0.010514645 0.035208076 0.016645277 12434104
0.010515655 0.037729651 0.016908139 12434108
0.015479265 -0.048280839 0.01093005 11778220
0.015480279 -0.045749787 0.011193901 11446695
0.0054818615 -0.043228406 0.010578458 11182239
0.0054828678 -0.040716302 0.010840334 11112087
0.00048415115 -0.038227975 0.010660578 11123371
0.00048515387 -0.035725344 0.010921465 11383744
0.00048615658 -0.03322272 0.011182353 11704160
0.0004871593 -0.030720089 0.011443241 10424321
-0.0045115766 -0.028279128 0.011258568 9259313
-0.0045105778 -0.025785971 0.011518468 11165026
-0.009509325 -0.023373423 0.011330811 13150603
-0.0095083304 -0.020889735 0.011589725 12229044
-0.0095073348 -0.018406054 0.011848637 11373146
-0.0095063401 -0.015922369 0.01210755 9666561
-0.0095053446 -0.013438687 0.012366463 7960065
-0.0095043499 -0.010955002 0.012625377 7692545
-0.014503123 -0.0086087612 0.012430808 7432010
-0.014502131 -0.0061345501 0.012688734 10399891
-0.01450114 -0.0036603396 0.012946659 13423788
-0.014500149 -0.0011861288 0.013204585 13817541
-0.014499158 0.0012880819 0.01346251 14211273
-0.014498167 0.0037622962 0.013720436 14343885
-0.014497175 0.0062365034 0.013978361 14476708
-0.014496184 0.0087107103 0.014236286 13280636
-0.0094953934 0.011398146 0.014955593 11993406
-0.0094943987 0.013881832 0.015214507 12021505
-0.0094934031 0.016365524 0.015473421 12083795
-0.0044925972 0.01909085 0.016196677 13089958
0.00050821621 0.021835119 0.016921889 14078901
0.00050921889 0.024337742 0.017182777 13617349
0.00051022164 0.02684037 0.017443664 13222592
0.0055110501 0.029622534 0.018172847 12892603
0.010511887 0.032423638 0.018903987 12565434
0.010512897 0.034945212 0.019166851 12499642
0.010513907 0.037466787 0.019429713 12499648
0.0054791137 -0.046002377 0.01282868 11646128
0.0054801204 -0.043490279 0.013090556 11183519
0.0054811267 -0.040978175 0.01335243 10849422
0.00048241654 -0.038488865 0.013163209 10590366
0.00048341925 -0.035986234 0.013424098 10790061
0.00048442197 -0.03348361 0.013684985 10981719
0.00048542468 -0.030980978 0.013945874 10100481
-0.0095130363 -0.028599702 0.013296662 9329968
-0.0095120417 -0.026116017 0.013555575 11095904
-0.0095110461 -0.023632335 0.013814488 12955028
-0.0095100515 -0.021148646 0.014073402 13099977
-0.0095090559 -0.018664965 0.014332314 13280887
-0.0095080612 -0.016181281 0.014591227 11954468
-0.014506821 -0.013815111 0.014389164 10642973
-0.01450583 -0.011340899 0.014647089 10576663
-0.014504838 -0.0088666854 0.014905015 10586727
-0.014503847 -0.0063924748 0.015162941 12634040
-0.0095030852 -0.0037628636 0.015885795 14670272
-0.0095020905 -0.0012791788 0.016144706 14737608
-0.014500872 0.0010301574 0.015936717 14802123
-0.0095001003 0.0036881911 0.016662532 14738127
-0.01449889 0.0059785792 0.016452568 14735516
-0.00949811 0.0086555574 0.017180359 13205865
-0.0094971145 0.011139235 0.017439272 11696457
-0.0094961198 0.01362292 0.017698186 11563562
-0.0094951242 0.016106613 0.017957099 11424110
-0.0044943253 0.018830953 0.018689811 12825522
0.00050648156 0.021574229 0.01942452 14276542
0.00050748431 0.024076857 0.019685408 13748682
0.0055083022 0.026848555 0.020423068 13288899
0.005509309 0.029360659 0.020684944 12958653
0.010510139 0.032160778 0.021425562 12696508
0.01051115 0.034682352 0.021688424 12631227
0.01051216 0.037203927 0.021951288 12565439
0.01051317 0.039725501 0.02221415 12565443
0.010477072 -0.046270873 0.015798394 11514042
0.00047867652 -0.04375501 0.015144052 11184800
0.0054793856 -0.041240051 0.015864534 10849414
0.00048068192 -0.038749751 0.015665827 10589328
0.00048168463 -0.036247119 0.015926715 11047067
0.00048268735 -0.033744495 0.016187605 11504718
-0.0045160316 -0.031292081 0.015984969 10780417
-0.0095147584 -0.028858615 0.015780348 10121775
-0.0095137628 -0.026374931 0.016039262 11169374
-0.0095127681 -0.023891248 0.016298173 12235422
-0.0095117725 -0.02140756 0.016557088 12565215
-0.0095107779 -0.018923879 0.016816 12894867
-0.0095097823 -0.016440192 0.017074913 11894600
-0.014508535 -0.014073036 0.016863378 10981434
-0.014507544 -0.011598825 0.017121302 11050797
-0.014506553 -0.0091246106 0.017379228 11185797
-0.014505561 -0.0066503999 0.017637154 11976669
-0.0095048072 -0.0040217764 0.018369479 12836820
-0.0095038116 -0.0015380912 0.018628391 13556427
-0.014502588 0.00077223225 0.01841093 14276302
-0.0095018214 0.0034292785 0.019146217 13750482
-0.0095008267 0.00591296 0.01940513 13224852
-0.0094998311 0.0083966451 0.019664044 11957590
-0.0094988365 0.010880322 0.019922957 10690901
-0.0094978409 0.013364008 0.02018187 10760276
-0.0044970522 0.016077887 0.02092308 10895497
-0.0044960533 0.018571051 0.02118298 12233919
0.00050474697 0.021313343 0.021927139 13622471
0.00050574966 0.023815969 0.022188026 13486799
0.0055065611 0.02658668 0.022935171 13355463
0.0055075679 0.029098785 0.023197047 13024447
0.010508391 0.031897914 0.023947144 12762045
0.010509402 0.034419488 0.024210006 12630972
0.010510412 0.036941063 0.02447287 12565438
0.010511423 0.039462637 0.024735732 12565441
0.010475324 -0.046533734 0.018319968 11447730
0.0054766377 -0.044014029 0.018114755 11182997
0.0054776445 -0.041501924 0.01837663 10849657
0.0054786508 -0.038989823 0.018638505 10588819
0.00047995002 -0.036508005 0.01842935 11318190
0.00048095273 -0.034005381 0.018690236 12035205
-0.0045177597 -0.031551979 0.018478118 11507292
-0.0095164794 -0.029117528 0.018264033 10982002
-0.0095154848 -0.026633844 0.018522946 11243145
-0.0095144892 -0.024150159 0.018781858 11515822
-0.0095134946 -0.021666471 0.019040773 11976660
-0.009512499 -0.01918279 0.019299684 12502187
-0.0095115043 -0.016699106 0.019558597 11900291
-0.0095105087 -0.014215424 0.019817511 11375229
-0.014509259 -0.011856751 0.019595524 11571063
-0.014508268 -0.0093825366 0.01985345 11776918
-0.014507276 -0.0069083255 0.020111376 11385014
-0.014506285 -0.0044341148 0.020369302 10994879
-0.0095055336 -0.0017970037 0.021112075 12374472
-0.009504538 0.00068667758 0.021370988 13749958
-0.0095035434 0.0031703662 0.021629902 12689860
-0.0095025478 0.0056540477 0.021888815 11716760
-0.0095015531 0.0081377327 0.022147728 10709357
-0.0095005576 0.01062141 0.022406641 9787246
-0.0044997791 0.013324833 0.023156328 10045039
-0.0044987802 0.015817989 0.023416229 10384794
-0.0044977814 0.018311152 0.023676129 11642309
0.00050301233 0.021052456 0.024429772 12965830
0.00050401507 0.023555081 0.02469066 13225159
0.00050501776 0.026057707 0.024951547 13486019
0.0055058263 0.02883691 0.025709143 13156032
0.0055068331 0.031349007 0.025971018 12827325
0.010507654 0.034156628 0.02673158 12695738
0.010508664 0.036678202 0.026994444 12630974
0.010509674 0.039199777 0.027257307 12630977
0.010510685 0.041721351 0.02752017 12630975
0.0054738903 -0.046788003 0.020364977 11381418
0.0054748966 -0.044275906 0.020626852 11115915
0.0054759034 -0.041763801 0.020888727 10458733
0.0054769097 -0.0392517 0.021150602 9736343
0.0004782154 -0.036768895 0.020931974 10986433
0.00047921811 -0.034266271 0.021192864 12305084
-0.0045194877 -0.031811882 0.02097128 12042423
-0.0095182015 -0.02937644 0.020747725 11779766
-0.0095172059 -0.026892755 0.021006638 11845045
-0.0095162112 -0.024409072 0.02126555 11845055
-0.0095152156 -0.021925384 0.021524465 12632521
-0.009514221 -0.019441703 0.021783376 13354692
-0.0095132254 -0.016958019 0.022042289 13157823
-0.0095122308 -0.014474337 0.022301203 12961216
-0.0095112352 -0.011990652 0.022560116 12832449
-0.0095102405 -0.0095069669 0.022819029 12769192
-0.0095092449 -0.0070232865 0.023077942 11971984
-0.0095082503 -0.004539602 0.023336856 11240875
-0.0095072547 -0.0020559165 0.023595767 12701638
-0.00950626 0.00042776455 0.02385468 14075582
-0.0095052645 0.0029114531 0.024113594 13747894
-0.0095042698 0.0053951344 0.024372507 13420189
-0.0095032742 0.0078788195 0.02463142 12693380
-0.004502506 0.010571778 0.025389589 12032391
-0.0045015072 0.013064933 0.02564949 12101771
-0.0045005083 0.015558088 0.02590939 12105643
-0.0044995095 0.018051252 0.026169291 12829900
0.00050127774 0.02079157 0.026932398 13554374
0.00050228043 0.023294196 0.027193286 13420736
0.00050328317 0.025796821 0.027454173 13354432
0.00050428585 0.028299455 0.027715063 13091265
0.005505092 0.031087132 0.028483115 12827069
0.010505906 0.033893764 0.029253155 12630201
0.010506917 0.036415339 0.029516019 12499901
0.021507448 0.03962655 0.030901138 12565442
0.021508466 0.04216896 0.031166172 12631233
0.0054721492 -0.047049876 0.022877079 11315370
0.0054731555 -0.044537779 0.023138955 11115905
0.010473849 -0.042016309 0.023888841 9988184
0.0054751686 -0.039513573 0.023662705 8946825
0.0054761749 -0.037001472 0.023924582 10720186
0.0004774835 -0.034527157 0.023695495 12567992
-0.0045212158 -0.03207178 0.023464436 12568757
-0.004520217 -0.029578626 0.023724336 12627608
-0.0095189279 -0.027151667 0.023490315 12419450
-0.0095179323 -0.024667986 0.023749227 12232868
-0.0095169377 -0.022184297 0.024008142 13225677
-0.0095159421 -0.019700617 0.024267053 14275277
-0.0095149474 -0.01721693 0.024525966 14407373
-0.0095139518 -0.014733248 0.02478488 14604479
-0.0095129572 -0.012249564 0.025043793 14146481
-0.0095119616 -0.0097658783 0.025302706 13746076
-0.0095109669 -0.0072821984 0.02556162 12624776
-0.0095099714 -0.0047985134 0.025820533 11573410
-0.014508723 -0.0024757525 0.025575632 13029052
-0.0095079811 0.0001688529 0.026338357 14472897
-0.0095069865 0.0026525415 0.026597271 14802886
-0.0095059909 0.005136223 0.026856184 15130297
-0.0045052329 0.0078187222 0.027622845 14737069
-0.0045042341 0.010311878 0.027882745 14334876
-0.0045032352 0.012805033 0.028142646 14069131
-0.0045022364 0.015298189 0.028402546 13876907
0.00049854041 0.018028056 0.029174143 14012362
0.00049954309 0.020530682 0.029435031 14143686
0.00050054584 0.023033308 0.029695919 13682114
0.00050154852 0.025535934 0.029956806 13288641
0.00050255127 0.028038567 0.030217696 13026496
0.00050355395 0.030541193 0.030478584 12828607
0.0055043572 0.033337362 0.031257093 12564158
0.0055053635 0.035849467 0.03151897 12368063
0.0055063702 0.038361561 0.031780843 12499648
0.021506704 0.041903924 0.033708598 12696256
0.010471092 -0.044800747 0.026147539 11115895
0.010472102 -0.042279173 0.026410401 9788483
0.0054734275 -0.03977545 0.026174808 8550779
0.0054744338 -0.037263349 0.026436685 10591412
0.00047574888 -0.034788042 0.026198115 12634292
-0.0045229439 -0.032331679 0.025957583 11911092
-0.004521945 -0.029838525 0.026217483 11181946
-0.009520649 -0.02741058 0.025973992 10911296
-0.0095196543 -0.024926897 0.026232904 10720137
-0.0095186587 -0.022443209 0.026491819 12503506
-0.0045179492 -0.019865898 0.027257085 14278614
-0.0095166685 -0.017475842 0.027009644 13621723
-0.0095156739 -0.014992161 0.027268557 12964286
-0.0095146783 -0.012508476 0.02752747 12759202
-0.0095136836 -0.010024791 0.027786383 12619921
-0.009512688 -0.0075411103 0.028045297 12297856
-0.0095116934 -0.0050574252 0.02830421 12037273
-0.0095106978 -0.00257374 0.028563121 12103603
-0.0095097031 -9.0058966e-05 0.028822035 12170180
-0.0095087076 0.0023936296 0.029080948 13554134
-0.0045079603 0.0050656684 0.029856091 14934742
-0.004506961 0.0075588236 0.030115992 13884118
0.00049379765 0.010259277 0.030894097 12896945
0.00049480039 0.01276191 0.031154986 12496524
0.00049580308 0.015264536 0.031415872 12161962
0.00049680582 0.017767169 0.031676762 12959433
0.00049780851 0.020269796 0.031937651 13815494
0.00049881119 0.02277242 0.032198537 13485764
0.00049981393 0.025275048 0.032459427 13090754
0.00050081662 0.027777679 0.032720312 13551040
0.00050181936 0.030280307 0.032981202 14009793
0.0055026161 0.033075485 0.033769198 13745603
0.0055036223 0.03558759 0.034031071 13546945
0.0055046291 0.038099684 0.034292948 12957887
0.015468 -0.047596738 0.028911231 11514795
0.010469344 -0.045063607 0.028669113 11181950
0.010470354 -0.042542033 0.028931975 9654609
0.010471364 -0.040020458 0.029194837 8161406
0.0054726927 -0.037525222 0.028948788 10397100
0.005473699 -0.035013121 0.029210662 12699294
0.00047501698 -0.0325463 0.028961651 11188112
0.00047601969 -0.030043671 0.029222539 9733731
-0.0045226738 -0.027605269 0.028970545 9468982
-0.0095213754 -0.02518581 0.028716596 9210487
-0.0045206761 -0.022618957 0.029490346 11716024
-0.0045196773 -0.020125799 0.029750247 14278085
-0.0045186784 -0.017632639 0.030010149 12770514
-0.0045176796 -0.015139483 0.030270049 11315102
-0.0045166807 -0.012646328 0.03052995 11369578
-0.0095154047 -0.010283704 0.030270075 11507286
-0.00951441 -0.0078000235 0.030528989 11971137
-0.0095134145 -0.005316338 0.030787902 12496474
-0.0095124198 -0.002832653 0.031046813 11179379
-0.0095114242 -0.00034897198 0.031305727 9874586
-0.0095104296 0.0021347166 0.031564638 12305601
-0.0045096884 0.0048057679 0.032349251 14737852
-0.004508689 0.0072989231 0.032609154 13096888
0.00049206306 0.0099983877 0.033396747 11446143
0.00049306575 0.012501021 0.033657633 10908742
0.00049406843 0.015003647 0.033918522 10458749
0.00049507117 0.017506281 0.034179412 11972020
0.00049607386 0.020008907 0.034440298 13554109
0.0004970766 0.022511533 0.034701187 13223878
0.00049807929 0.025014158 0.034962073 12961738
0.00049908203 0.027516792 0.035222962 14075854
0.0054998682 0.030301508 0.036019422 15192531
0.0055008749 0.032813612 0.036281299 14998744
0.0055018812 0.035325717 0.036543176 14797260
0.005502888 0.037837811 0.036805049 13481920
0.015466245 -0.047860585 0.031442277 11118507
0.010467595 -0.045326471 0.031190688 10789509
0.015468273 -0.042798497 0.031969976 9852000
0.010469616 -0.040283322 0.031716414 8951682
0.010470627 -0.037761752 0.031979278 10794404
0.0054719578 -0.035274994 0.031722751 12633480
0.00047328236 -0.03280719 0.031464282 11511148
0.00047428504 -0.030304559 0.031725168 10448460
-0.0045244019 -0.02786517 0.031463709 10322988
-0.004523403 -0.025372013 0.031723607 10256997
-0.0045224042 -0.022878857 0.03198351 11972255
-0.0045214053 -0.020385699 0.032243408 13753524
-0.0045204065 -0.01789254 0.032503311 12572617
-0.0045194076 -0.015399383 0.032763209 11369854
-0.0095181214 -0.013026301 0.032494839 11438643
-0.0095171267 -0.010542615 0.032753751 11509019
-0.0095161311 -0.0080589345 0.033012666 11903235
-0.0095151365 -0.0055752499 0.033271577 12234779
-0.0095141409 -0.0030915646 0.033530492 11376179
-0.0095131453 -0.00060788362 0.033789404 10453359
-0.0095121507 0.0018758049 0.034048319 12567980
-0.004511416 0.0045458674 0.034842413 14737827
-0.0045104171 0.0070390226 0.035102315 13092250
0.00049032841 0.0097375 0.035899378 11437389
0.0004913311 0.012240133 0.036160264 11112193
0.00049233384 0.014742759 0.036421154 10787152
0.00049333653 0.017245393 0.036682043 11967904
0.00049433927 0.019748019 0.036942929 13227444
0.00049534196 0.022250645 0.037203819 13093064
0.0004963447 0.024753271 0.037464704 12959954
0.0054971208 0.027527537 0.038269639 14142684
0.0054981271 0.030039635 0.038531512 15398628
0.010498915 0.032842316 0.039339438 15528173
0.010499925 0.03536389 0.039602302 15657687
0.010500936 0.037885465 0.039865166 14867650
0.010467868 -0.040546183 0.034237988 9738372
0.010468879 -0.038024612 0.034500852 11191724
0.0054702167 -0.03553687 0.03423487 12631692
0.00047154774 -0.033068076 0.033966903 11900012
0.00047255046 -0.030565446 0.034227788 11178064
0.00047355314 -0.028062817 0.034488678 11242547
-0.0045251311 -0.025631912 0.034216758 11374948
0.00047555857 -0.023057561 0.035010453 12294037
-0.0045231334 -0.020645598 0.034736559 13226162
0.000477564 -0.018052302 0.035532229 12309199
-0.0045211357 -0.015659282 0.03525636 11438978
-0.0045201369 -0.013166128 0.035516262 11507766
-0.0095188478 -0.010801529 0.035237443 11573293
-0.0095178522 -0.0083178477 0.035496358 11770148
-0.0095168576 -0.0058341632 0.035755269 12032047
-0.009515862 -0.0033504779 0.036014184 11573306
-0.0095148673 -0.00086679688 0.036273096 11105396
-0.0095138717 0.0016168916 0.036532011 12896174
-0.004513144 0.0042859684 0.037335563 14737311
-0.0045121452 0.0067791236 0.037595466 13087632
0.00048859383 0.0094766142 0.038401999 11436107
0.00048959651 0.011979247 0.038662884 11242246
0.0004905992 0.014481873 0.038923774 11111502
0.00049160194 0.016984506 0.039184663 12029591
0.00049260462 0.019487131 0.039445549 12962992
0.00049360737 0.021989757 0.039706439 12962506
0.00049461005 0.024492383 0.039967325 12959693
0.0054953792 0.02726566 0.040781759 14275025
0.005496386 0.029777758 0.041043632 15656924
0.010497168 0.032579456 0.041861013 16121575
0.010498178 0.03510103 0.042123877 16578524
0.010499188 0.037622605 0.04238674 16314834
0.010500198 0.040144179 0.042649601 16118221
0.00046981312 -0.033328962 0.036469534 11701613
0.00047081581 -0.030826334 0.03673042 10719060
