# .PCD v0.7 - Point Cloud Data file format
VERSION 0.7
FIELDS x y z rgba
SIZE 4 4 4 4
TYPE F F F U
COUNT 1 1 1 1
WIDTH 1062
HEIGHT 1
VIEWPOINT 0 0 0 1 0 0 0
POINTS 1062
DATA ascii
-0.032082193 0.030568667 0.010640746 3817268
-0.030304767 0.031680927 0.010542793 3620143
-0.028527329 0.032793194 0.010444839 3488812
-0.026749892 0.033905461 0.010346886 3357226
-0.025929701 0.03789407 0.0074989088 3225646
-0.024158724 0.039002299 0.0074013118 3685682
-0.023115378 0.042261772 0.0052416958 4144434
-0.021349233 0.043366969 0.0051443651 3816754
-0.019583089 0.044472173 0.0050470326 3488558
-0.017816957 0.045577362 0.0049497019 3356971
-0.016050812 0.046682566 0.0048523694 3290413
-0.015287074 0.050635852 0.0020075031 3224879
-0.013527378 0.051737018 0.0019105282 3159598
-0.011767694 0.052838176 0.0018135514 3291181
-0.010007997 0.053939342 0.0017165765 3488305
-0.0082483003 0.055040509 0.0016195998 3290933
-0.0072646374 0.058262631 -0.00053672679 3094322
-0.0047289198 0.057242833 0.0014256481 2897968
-0.0029692361 0.058343988 0.0013286732 2701867
-0.00015551411 0.056629375 0.003976386 2699302
0.0034664804 0.052813981 0.0086816717 2698279
0.006044127 0.05182042 0.010641738 2698537
0.0088998191 0.050131965 0.013287221 2764328
0.011768382 0.048451666 0.015931904 2962984
0.013563544 0.049575027 0.015832976 3226147
0.015358724 0.050698396 0.015734043 3754271
0.0171539 0.051821765 0.01563511 4216874
0.018949069 0.052945126 0.015536181 4216117
0.021578332 0.051983878 0.017493408 4215343
0.024496889 0.05033486 0.020135337 3888169
0.02630336 0.051465292 0.020035783 3626792
0.028958429 0.050520189 0.021991588 3425063
0.030769732 0.051653646 0.021891767 3288855
0.033725411 0.050027758 0.024531735 2895879
0.036693983 0.048410039 0.027170908 2503443
0.038518183 0.049551573 0.027070377 2896671
0.040342394 0.050693106 0.026969844 3355425
0.042166594 0.051834639 0.026869314 4405539
0.043990821 0.052976187 0.026768781 5521456
-0.06923461 -0.035338499 0.050075855 8082746
-0.067950763 -0.031932931 0.047898769 5652009
-0.067644432 -0.024801888 0.042264797 3288098
-0.065802485 -0.023649246 0.042163286 3021595
-0.063173383 -0.025473656 0.044826899 2766112
-0.059142485 -0.032492876 0.052328266 3157796
-0.058076445 -0.028356045 0.049460933 3551780
-0.05621675 -0.027192306 0.049358446 2828836
-0.054357056 -0.026028562 0.04925596 2108193
-0.05167792 -0.027821766 0.051916897 2501918
-0.049811766 -0.026653981 0.051814053 2960926
-0.048778001 -0.022537353 0.048948497 3026975
-0.046918306 -0.021373611 0.04884601 3157537
-0.045058589 -0.020209853 0.048743524 2960419
-0.043198895 -0.019046111 0.048641033 2763040
-0.0413392 -0.017882369 0.048538547 2631198
-0.039479505 -0.016718626 0.048436061 2565918
-0.036748756 -0.018479533 0.051094156 2500639
-0.034882627 -0.017311765 0.050991315 2500902
-0.032132547 -0.019060472 0.053648263 2632494
-0.042725567 0.022886118 0.014912498 2765357
-0.040943298 0.02400141 0.014814277 3030828
-0.039161026 0.025116703 0.014716056 3359026
-0.037378758 0.026231995 0.014617837 3556153
-0.036283627 0.029519562 0.01245106 3818040
-0.034506202 0.030631822 0.012353107 3752247
-0.032728769 0.031744093 0.012255153 3751986
-0.030951342 0.032856353 0.0121572 3555374
-0.030115912 0.036848769 0.0093026571 3423529
-0.028344922 0.037956998 0.0092050582 3292196
-0.026573932 0.039065234 0.0091074593 3226665
-0.025523992 0.042324528 0.006943183 3750959
-0.023757849 0.043429729 0.0068458505 4340786
-0.021991704 0.044534929 0.0067485198 3882293
-0.020225558 0.04564013 0.0066511873 3488817
-0.018459428 0.046745323 0.0065538567 3423022
-0.016693283 0.047850527 0.0064565241 3357229
-0.015927196 0.051799543 0.0036057979 3291436
-0.0141675 0.052900709 0.0035088211 3291177
-0.012407816 0.054001868 0.0034118444 3487783
-0.010648119 0.055103034 0.0033148695 3749675
-0.0088884225 0.056204196 0.0032178927 3225391
-0.0071287388 0.057305355 0.0031209178 2766125
-0.005369042 0.058406524 0.0030239411 2569260
-0.0025641294 0.056692131 0.0056778714 2436902
-9.201467e-06 0.055688664 0.0076434873 2435617
0.0036135176 0.051883757 0.012358767 2500643
0.0064604152 0.05019553 0.015010462 2500389
0.0082491338 0.051314857 0.014911885 2502180
0.010037851 0.052434187 0.01481331 2569507
0.012910513 0.050762188 0.017463502 2700322
0.014705693 0.051885556 0.017364569 2831393
0.01650087 0.053008925 0.017265636 2960936
0.018296039 0.054132286 0.017166708 2435376
0.020091215 0.055255659 0.017067775 1977133
0.022723556 0.054300625 0.019029127 2174250
0.025646223 0.052659918 0.021676561 2371624
0.027452694 0.053790353 0.021577008 2568999
0.030110832 0.052851472 0.023536939 2765341
0.033064164 0.051229849 0.026182771 2371860
0.036030389 0.0496164 0.028827805 1978394
0.03785459 0.050757933 0.028727274 2570272
0.039678801 0.051899467 0.028626742 3227169
0.041503001 0.053041 0.028526211 5522722
-0.069911115 -0.034108676 0.05176498 9478506
-0.06805142 -0.032944933 0.051662493 8361022
-0.066191725 -0.031781189 0.051560007 7309343
-0.064332031 -0.030617448 0.051457517 6446593
-0.061687492 -0.032426566 0.054126091 5649678
-0.05982133 -0.031258784 0.054023247 4076572
-0.05875295 -0.027126221 0.051150057 2503455
-0.056893256 -0.025962481 0.051047571 2633251
-0.055033561 -0.024798738 0.050945081 2765605
-0.052356765 -0.026587678 0.053611878 2896423
-0.05049061 -0.025419893 0.053509034 3092771
-0.048624482 -0.024252122 0.053406194 3027231
-0.046758328 -0.023084339 0.05330335 3027235
-0.044892173 -0.021916553 0.053200509 2894887
-0.043026045 -0.020748785 0.053097665 2696994
-0.041159891 -0.019580999 0.052994821 2566429
-0.040156007 -0.015488802 0.050125185 2501405
-0.037427604 -0.017245445 0.052789137 2436125
-0.035561476 -0.016077677 0.052686296 2436387
-0.033695322 -0.014909893 0.052583452 2436138
-0.030941125 -0.016650289 0.055245906 2436392
-0.042262517 0.02735818 0.014359327 2701351
-0.040485092 0.02847044 0.014261376 2966315
-0.038707644 0.029582717 0.014163421 3293999
-0.036930203 0.030694984 0.014065467 3686194
-0.035152778 0.031807244 0.013967514 3686197
-0.033375345 0.032919511 0.013869559 3686449
-0.03253112 0.0369117 0.011008807 3489581
-0.030760141 0.038019925 0.010911208 3292709
-0.028989151 0.039128158 0.010813609 3226654
-0.027932607 0.042387284 0.0086446684 3226149
-0.026166461 0.043492489 0.0085473377 3488812
-0.024400318 0.044597689 0.0084500052 3817266
-0.022634175 0.04570289 0.0083526745 3620409
-0.020868029 0.04680809 0.008255342 3423797
-0.019101897 0.047913283 0.0081580114 3489329
-0.017335754 0.049018487 0.0080606788 3554861
-0.01656732 0.052963234 0.0052040964 3357225
-0.014807624 0.0540644 0.0051071197 3226149
-0.01304794 0.055165559 0.0050101429 3225890
-0.011288243 0.056266729 0.004913168 3225125
-0.0095285466 0.057367895 0.0048161913 2896681
-0.0077688629 0.058469053 0.0047192164 2633768
-0.0049727429 0.056754895 0.0073793586 2173736
-0.0013815463 0.05294029 0.012106393 1779490
0.00039590523 0.054052565 0.012008438 2041372
0.0040210001 0.050259087 0.016733702 2368798
0.0058097318 0.051378421 0.016635127 2434849
0.0075984504 0.052497748 0.016536549 2567711
0.0093871672 0.053617079 0.016437974 2502942
0.011175884 0.054736402 0.016339399 2503968
0.012964616 0.05585574 0.016240824 2634531
0.014753347 0.05697507 0.016142245 2830119
0.017643008 0.055319443 0.018797226 2633260
0.019438185 0.056442816 0.018698297 2436651
0.021233365 0.057566185 0.018599365 2502443
0.023868788 0.056617383 0.020564843 2634025
0.026795557 0.054984976 0.023217786 2765607
0.029451936 0.054049298 0.025182113 2963236
0.031263225 0.055182748 0.025082294 3288865
0.034220684 0.053569444 0.027733622 3681569
0.037191 0.051964287 0.030384166 4602146
-0.068727918 -0.031715106 0.053351618 11117931
-0.066868223 -0.030551367 0.053249128 11312732
-0.065008529 -0.029387623 0.053146642 9934669
-0.062366337 -0.031192476 0.055821076 8613951
-0.060500182 -0.030024694 0.055718232 5065009
-0.059429448 -0.025896396 0.052839182 1521953
-0.057569753 -0.024732657 0.052736696 2435602
-0.055710059 -0.023568913 0.052634209 3420190
-0.053035617 -0.025353586 0.055306863 3290667
-0.051169463 -0.024185801 0.055204019 3224617
-0.04930333 -0.02301803 0.055101179 3093287
-0.047437176 -0.021850247 0.054998334 2961700
-0.045571022 -0.020682462 0.054895494 2829602
-0.043704893 -0.019514693 0.05479265 2698528
-0.041838739 -0.018346908 0.054689806 2567455
-0.040832508 -0.014258977 0.05181431 2436125
-0.038106453 -0.016011354 0.054484122 2436636
-0.036240324 -0.014843585 0.054381281 2436128
-0.03437417 -0.013675801 0.054278437 2239268
-0.032508012 -0.012508016 0.054175597 2107686
-0.043801226 0.0314335 0.013202941 2303784
-0.04203026 0.032541715 0.013105346 2569512
-0.03935422 0.030758142 0.015777832 3032104
-0.037576787 0.03187041 0.015679879 3556148
-0.036717318 0.035866402 0.012812549 3556159
-0.034946337 0.036974624 0.012714954 3620918
-0.033175349 0.03808286 0.012617355 3423788
-0.031404369 0.039191082 0.012519756 3226920
-0.029633382 0.040299319 0.012422157 3226660
-0.028575074 0.043555241 0.010248818 3226664
-0.026808929 0.044660442 0.010151483 3292204
-0.025042785 0.045765646 0.010054152 3358256
-0.023276642 0.046870843 0.0099568218 3358772
-0.021510497 0.047976047 0.0098594911 3358257
-0.019744365 0.049081236 0.0097621586 3555118
-0.017978221 0.05018644 0.0096648261 3751467
-0.016212076 0.051291641 0.0095674954 3488808
-0.014445932 0.052396841 0.0094701629 3226148
-0.01368806 0.056329247 0.0066084303 2964000
-0.010913644 0.054607242 0.0092754997 2765855
-0.0091474857 0.055712454 0.0091781691 2633758
-0.0073813554 0.056817643 0.0090808365 2501662
-0.003029976 0.050895117 0.01589103 1778974
-0.00020712987 0.049203314 0.018555515 1123865
0.0015815888 0.050322641 0.018456936 1647124
0.0033703186 0.051441975 0.018358361 2237976
0.0051590502 0.052561309 0.018259786 2435101
0.0080140969 0.050889764 0.020922411 2698267
0.0087364856 0.054799963 0.018062633 2502170
0.010525202 0.055919293 0.017964058 2306077
0.012313934 0.057038624 0.017865483 2503200
0.015194807 0.055383243 0.020526685 2765346
0.016989976 0.056506604 0.020427752 2830884
0.018785153 0.057629976 0.020328823 2962470
0.020580333 0.058753345 0.020229891 2897704
0.023213996 0.057807744 0.022199763 2897189
0.026138419 0.056179602 0.024858562 3028003
0.02794488 0.05731003 0.024759008 3225123
0.030604333 0.05638057 0.026727458 4271652
0.033559438 0.054771535 0.029384656 5386273
0.037390079 0.051116809 0.034108527 6634014
-0.060105946 -0.024666576 0.0545283 6248995
-0.058246251 -0.023502836 0.054425813 4210433
-0.054774668 -0.028235361 0.059885971 2174488
-0.052902076 -0.027063552 0.059782773 2240815
-0.051029462 -0.025891725 0.059679575 2307375
-0.049156871 -0.024719911 0.059576377 2306863
-0.047284286 -0.0235481 0.059473179 2306598
-0.046249866 -0.019448373 0.056590475 2501661
-0.043539107 -0.021204477 0.059266783 2763807
-0.042517584 -0.017112819 0.056384791 2566946
-0.040651452 -0.015945051 0.056281947 2435614
-0.038785297 -0.014777265 0.056179103 2370075
-0.036919169 -0.013609497 0.056076262 2304796
-0.035053015 -0.012441713 0.055973418 2107422
-0.032303516 -0.014173575 0.058647595 1909796
-0.029541098 -0.015897458 0.061321139 2039850
-0.027662046 -0.014721604 0.061217584 2104358
-0.040903494 0.034821108 0.01461629 2436130
-0.039132521 0.03592933 0.014518691 2767926
-0.03736154 0.037037559 0.014421092 2966090
-0.035590567 0.038145781 0.014323497 3164219
-0.033819579 0.039254017 0.014225898 3029036
-0.032749821 0.042512804 0.012047634 2897707
-0.03027761 0.041470475 0.014030701 2897706
-0.029217545 0.044723198 0.011852972 2963499
-0.0274514 0.045828402 0.011755638 3095340
-0.025685254 0.046933603 0.011658307 3161646
-0.023919111 0.048038803 0.011560977 3161648
-0.022152968 0.049144004 0.011463646 3161646
-0.020386836 0.050249197 0.011366311 3292716
-0.01862069 0.051354401 0.011268981 3358250
-0.016854547 0.052459598 0.01117165 3160616
-0.015088402 0.053564802 0.011074319 2897955
-0.013322257 0.054669999 0.010976985 2700575
-0.011556114 0.055775203 0.010879654 2503193
-0.0090258345 0.054769211 0.012859521 2305299
-0.0062295618 0.053066615 0.015531117 2173203
-0.002646544 0.049266871 0.020278752 1844500
0.00018036552 0.047583446 0.022948656 1517072
0.00093090441 0.051505532 0.020081602 1910284
0.0027196342 0.052624866 0.019983023 2303762
0.0055658892 0.050953548 0.022651862 2500889
0.0073610675 0.052076917 0.02255293 2632216
0.0091562588 0.053200297 0.022453997 2370839
0.009874519 0.057102185 0.01958872 2174746
0.011663251 0.058221515 0.019490145 2503198
0.014541779 0.0565704 0.022157203 2831133
0.016336948 0.057693761 0.022058275 2896924
0.018132124 0.05881713 0.021959342 2962976
0.019927304 0.059940498 0.02186041 2766373
0.022559205 0.0589981 0.023834685 2635298
0.025481282 0.057374228 0.02649934 3552288
0.027287742 0.058504652 0.026399786 4535587
0.029945433 0.057578392 0.028372634 5256231
-0.055455867 -0.026997006 0.061586812 933415
-0.053583276 -0.025825197 0.061483614 1120286
-0.051710662 -0.02465337 0.061380416 1388575
-0.04983807 -0.023481555 0.061277218 1516064
-0.047965478 -0.022309745 0.06117402 1651742
-0.046092864 -0.021137917 0.061070822 2239516
-0.044220302 -0.019966122 0.060967624 2828830
-0.042347711 -0.018794309 0.060864426 2631457
-0.040475097 -0.017622482 0.060761228 2435102
-0.038602505 -0.01645067 0.06065803 2304283
-0.036729913 -0.015278859 0.060554832 2172698
-0.03573186 -0.011207625 0.057668399 1975577
-0.032984708 -0.012935219 0.060348436 1777435
-0.03111212 -0.011763407 0.060245238 1710878
-0.029239532 -0.010591596 0.06014204 1710103
-0.042223025 0.038154751 0.014138445 1839377
-0.04045688 0.039259955 0.014041115 2039076
-0.038005777 0.038208716 0.016029643 2369847
-0.036234796 0.039316941 0.015932048 2698799
-0.034463808 0.040425174 0.015834449 2634535
-0.033392292 0.043680765 0.013651788 2568745
-0.030921841 0.042641632 0.015639251 2634027
-0.029860014 0.045891158 0.013457127 2766123
-0.028093871 0.046996363 0.013359793 2898474
-0.026327725 0.048101563 0.013262462 3030061
-0.02456158 0.049206764 0.013165131 3030575
-0.022795437 0.050311964 0.013067801 3030829
-0.021029305 0.051417157 0.012970466 3031338
-0.019263159 0.052522361 0.012873136 3030056
-0.017497016 0.053627558 0.012775805 2832423
-0.015730873 0.054732762 0.012678474 2634531
-0.013964728 0.055837959 0.01258114 2436895
-0.010431 0.052017506 0.017341433 2238741
-0.0078911912 0.051021785 0.019325078 2040844
-0.0050859582 0.049330425 0.022001993 1909519
-0.0022678319 0.047647242 0.024678115 1909266
-0.0004726667 0.048770607 0.024579182 1976339
0.0013225116 0.049893975 0.02448025 2172692
0.0031176899 0.051017348 0.024381317 2435094
0.004912857 0.052140709 0.024282388 2501145
0.0067080352 0.053264078 0.024183456 2632473
0.0085032266 0.054387454 0.024084523 2305049
0.01029839 0.055510815 0.023985595 2044189
0.01209357 0.056634184 0.023886662 2437921
0.013888747 0.057757556 0.023787729 2896927
0.015683915 0.058880918 0.023688797 2897181
0.017479092 0.06000429 0.023589868 2962720
0.020104392 0.059062056 0.025568796 2700579
0.023017669 0.057438415 0.028239677 2438433
0.024824141 0.058568854 0.028140122 4142111
0.027475242 0.057642765 0.030117631 5846307
0.030419186 0.056038208 0.032786898 6304295
-0.054264467 -0.02458684 0.063184462 5455118
-0.052391853 -0.023415012 0.063081257 5254160
-0.049698658 -0.025170742 0.065770075 5189906
-0.047819607 -0.023994887 0.065666527 5125655
-0.04677406 -0.01989956 0.062771663 3287836
-0.044061504 -0.021643179 0.065459415 1517598
-0.043028902 -0.017555952 0.062565275 1581600
-0.041156288 -0.016384125 0.062462069 1645853
-0.039283697 -0.015212312 0.062358871 1776155
-0.037411109 -0.014040502 0.062255673 1972248
-0.036410712 -0.0099735316 0.059363388 1579285
-0.033665903 -0.011696862 0.062049277 1186323
-0.030908179 -0.013412213 0.064734541 1514002
-0.029029131 -0.012236359 0.064630985 1840393
-0.02715008 -0.011060504 0.064527437 2036225
-0.041099351 0.040427912 0.015645269 2232338
-0.039333206 0.041533113 0.015547939 2237220
-0.03756706 0.042638317 0.015450608 2236963
-0.035800904 0.043743521 0.015353274 2303778
-0.034034759 0.044848725 0.015255943 2370599
-0.032268628 0.045953918 0.015158612 2436397
-0.02979508 0.044921026 0.017150203 2502187
-0.02873634 0.048164319 0.014963947 2633513
-0.026970197 0.04926952 0.014866617 2830636
-0.025204051 0.050374724 0.014769286 2699823
-0.023437906 0.051479921 0.014671955 2634796
-0.021671776 0.052585118 0.014574621 2634281
-0.01990563 0.053690314 0.01447729 2633767
-0.018139485 0.054795519 0.01437996 2501926
-0.015627239 0.053786844 0.016369419 2370082
-0.012104068 0.049969822 0.021140322 2171935
-0.0083063962 0.045464292 0.026605431 2039314
-0.0065112179 0.046587661 0.026506498 1843206
-0.0047160396 0.04771103 0.026407566 1647115
-0.0021505696 0.046735659 0.028394094 1844497
-0.0003505596 0.047862053 0.028294897 2107926
0.0014494653 0.048988454 0.028195696 2304796
0.0032494753 0.050114848 0.028096499 2567194
0.0050494871 0.051241241 0.027997302 2698521
0.0068495101 0.052367646 0.027898101 2830106
0.0078501971 0.055574615 0.025715046 2765084
0.010449534 0.054620434 0.027699707 2765600
0.011440542 0.057821345 0.025517184 2896677
0.013235718 0.058944713 0.025418252 3028258
0.015030887 0.060068075 0.025319319 2962719
0.016826063 0.061191443 0.02522039 2962720
0.019449601 0.060252413 0.027203714 2766114
0.022360532 0.058633041 0.029880455 2635040
0.024167003 0.059763476 0.0297809 4535582
0.026816346 0.058840588 0.031762805 6436387
-0.053073045 -0.022176657 0.064782098 9142102
-0.050382197 -0.023928121 0.067476779 8881754
-0.048503146 -0.022752266 0.067373224 8673332
-0.047455255 -0.018661205 0.064472504 4401678
-0.044745043 -0.020400558 0.06716612 204568
-0.043710094 -0.016317597 0.064266115 529442
-0.04183748 -0.015145769 0.06416291 924445
-0.039107896 -0.016872995 0.066855453 1313305
-0.038092304 -0.012802146 0.063956514 1772562
-0.036219712 -0.011630334 0.063853323 1183243
-0.034347098 -0.010458507 0.063750118 595469
-0.031591717 -0.012169592 0.066441238 1317136
-0.02971267 -0.010993738 0.06633769 2038283
-0.027833618 -0.0098178834 0.066234134 2235398
-0.028660975 -2.9768795e-05 0.057750899 2432273
-0.026801281 0.0011339746 0.057648413 2104859
-0.02494159 0.0022977144 0.057545926 1778712
-0.023081895 0.0034614578 0.05744344 1975573
-0.026325833 0.020325387 0.041986167 2173725
-0.032210298 0.044983946 0.018856345 2239525
-0.030439308 0.046092179 0.018758746 2305316
-0.028668333 0.047200404 0.018661147 2435619
-0.026897356 0.04830863 0.018563552 2631970
-0.025126364 0.049416862 0.018465953 2435362
-0.024080375 0.052647877 0.016276106 2238236
-0.02158441 0.051633313 0.018270755 2237974
-0.019813422 0.05274155 0.018173156 2237464
-0.018042445 0.053849772 0.018075561 2171419
-0.012549785 0.044404712 0.028433818 2105882
-0.010005418 0.043420434 0.030425804 1974810
-0.0082054064 0.044546828 0.030326607 1842708
-0.0064053959 0.045673221 0.03022741 1579534
-0.0046053729 0.046799622 0.030128209 1385234
-0.0028053611 0.04792602 0.030029012 1845270
-0.0010053511 0.049052414 0.029929815 2304798
0.0018322715 0.047392897 0.032616325 2501926
0.0025946838 0.051305208 0.029731417 2698529
0.0043946956 0.052431602 0.02963222 2830621
0.0061947186 0.053558007 0.029533019 3027741
0.00799473 0.054684401 0.029433822 3290397
0.0097947419 0.055810794 0.029334625 3551776
0.011594752 0.056937188 0.029235424 3355426
0.013394764 0.058063582 0.029136227 3158558
0.015194787 0.059189983 0.02903703 3027482
0.016994799 0.060316376 0.028937833 2962720
0.01879481 0.06144277 0.028838633 2897191
0.021703394 0.059827663 0.031521231 2897450
0.023509866 0.060958099 0.031421676 4929581
0.025316326 0.062088531 0.031322122 7026988
-0.051065736 -0.022685496 0.069183484 9873314
-0.049186692 -0.021509642 0.069079928 9869905
-0.04730764 -0.020333787 0.068976372 6504961
-0.045428589 -0.019157933 0.068872824 3146002
-0.044391286 -0.015079243 0.065966949 3219236
-0.041670486 -0.016806224 0.068665713 3283229
-0.039791435 -0.01563037 0.068562157 2953751
-0.038773496 -0.011563793 0.065657355 2624268
-0.037768401 -0.0075053554 0.06275335 1968897
-0.03502829 -0.0092201531 0.065450959 1315336
-0.033155698 -0.0080483407 0.065347761 1578255
-0.031283107 -0.0068765301 0.065244563 1776141
-0.030303836 -0.0028342474 0.062341977 1973260
-0.029337477 0.0012000557 0.059440024 2170639
-0.027477782 0.0023637973 0.059337538 2300947
-0.025618088 0.0035275407 0.059235051 2500110
-0.023758393 0.0046912804 0.059132565 2434313
-0.026989426 0.021531748 0.043643065 2370323
-0.025165226 0.022673277 0.043542534 2436126
-0.02521798 0.029499326 0.037848119 2501918
-0.02765893 0.043404721 0.025163695 2632734
-0.02587666 0.044520013 0.025065474 2763801
-0.024094377 0.045635313 0.024967253 2501141
-0.022312107 0.046750605 0.024869032 2304268
-0.020529836 0.047865897 0.024770811 2107139
-0.015083071 0.03841361 0.035153076 1909258
-0.014260232 0.042358007 0.032259122 2040337
-0.012460234 0.043484394 0.032159925 2171411
-0.010660211 0.044610795 0.032060727 2171925
-0.0088601988 0.045737188 0.03196153 2172693
-0.0070601883 0.046863586 0.031862333 2041366
-0.0052601653 0.047989987 0.031763129 1910040
-0.0034601535 0.049116381 0.031663932 2172955
-0.0016601435 0.050242774 0.031564735 2501669
0.0011751358 0.048587516 0.034257092 2567472
0.0019398914 0.052495569 0.031366341 2699049
0.0037399032 0.053621963 0.031267144 2830626
0.0065945373 0.051978819 0.033958435 2962464
0.0084009841 0.05310924 0.03385888 3093279
0.010207456 0.054239679 0.033759326 3224095
0.012013927 0.055370115 0.033659771 3093280
0.013820384 0.056500543 0.033560216 3026970
0.014539994 0.060380343 0.030671952 3027477
0.016340006 0.061506737 0.030572755 3094049
0.018140018 0.062633127 0.030473555 3158829
0.021046259 0.061022282 0.033162005 3158325
0.02285273 0.062152717 0.033062451 5191741
0.02465919 0.063283153 0.032962896 7225141
-0.052821223 -0.025537407 0.073803611 10723225
-0.050935719 -0.024357511 0.073699698 10854814
-0.04987023 -0.020267023 0.070786625 11050086
-0.047991179 -0.019091168 0.070683077 8542766
-0.046112128 -0.017915314 0.070579521 6111777
-0.045072485 -0.013840886 0.067667797 5843732
-0.043199871 -0.012669059 0.067564592 5645840
-0.041327279 -0.011497246 0.067461394 4530445
-0.040313408 -0.0074390471 0.064551175 3478538
-0.039312422 -0.0033888128 0.061641585 2754567
-0.036581095 -0.0051034782 0.064345494 2100494
-0.034714967 -0.0039357096 0.064242646 1839636
-0.032848813 -0.0027679242 0.064139806 1579285
-0.030982681 -0.0016001556 0.064036965 1772566
-0.030013975 0.0024298821 0.061129149 1972249
-0.02815428 0.0035936236 0.061026663 2562844
-0.026294589 0.0047573671 0.060924176 3218712
-0.024434894 0.0059211068 0.06082169 2891796
-0.027653016 0.022738103 0.045299955 2632475
-0.025828816 0.023879632 0.045199424 2632994
-0.02587688 0.03069715 0.039493293 2698529
-0.025715116 0.036789984 0.034489222 2764320
-0.023915105 0.037916377 0.034390025 2895389
-0.022831725 0.041162185 0.032189522 2633243
-0.02031507 0.040169172 0.034191631 2370325
-0.019241368 0.043408923 0.031991657 1976335
-0.016715048 0.042421959 0.033993237 1582609
-0.014915023 0.04354836 0.03389404 1909779
-0.013115024 0.044674747 0.033794843 2237975
-0.011315001 0.045801152 0.033695638 2369819
-0.0095149893 0.046927545 0.033596441 2501403
-0.0084703099 0.050149135 0.031398069 2436379
-0.0066751316 0.051272504 0.031299137 2435865
-0.0048799533 0.052395876 0.031200208 2566424
-0.0030847881 0.053519238 0.031101275 2698529
-0.00051490916 0.052559532 0.033100449 2698539
0.0012851008 0.053685926 0.033001252 2764838
0.0030851127 0.05481232 0.032902054 2830626
0.0059373979 0.053173449 0.035599217 2896416
0.0077438452 0.054303866 0.035499662 2896670
0.0095503163 0.055434305 0.035400108 2896670
0.011356788 0.056564745 0.035300553 2896670
0.013163244 0.057695169 0.035201006 2896668
0.013885204 0.061570697 0.032306865 3093275
0.015685216 0.06269709 0.032207668 3289124
0.018582648 0.061086472 0.034902342 3353133
0.020389119 0.062216911 0.034802787 3488564
-0.053507108 -0.024290519 0.075516172 10458774
-0.051621605 -0.023110623 0.075412259 10788507
-0.049736116 -0.021930741 0.075308353 11050875
-0.048674718 -0.017848542 0.072389781 8742235
-0.047626268 -0.013774341 0.069471844 6436143
-0.045753676 -0.012602529 0.069368646 6500356
-0.043881062 -0.011430701 0.06926544 6636803
-0.042858377 -0.0073727276 0.066349 6045443
-0.040992253 -0.006204959 0.066246159 5519880
-0.03998892 -0.0021589939 0.063330702 5057550
-0.038781188 0.0011602333 0.061119132 4660756
-0.036269534 0.00016849115 0.063125722 4463386
-0.03440984 0.0013322327 0.063023239 4266013
-0.032550167 0.0024959594 0.062920749 4330528
-0.031361766 0.0058030887 0.060710251 4329763
-0.030408481 0.0098177381 0.057797551 4266022
-0.029468032 0.013824253 0.054885648 4202531
-0.028540537 0.017822763 0.051974367 3547424
-0.027625922 0.02181311 0.049063884 2960419
-0.026492408 0.025085989 0.046856318 2829351
-0.025601976 0.029061211 0.043947168 2764324
-0.023784224 0.030198706 0.043846995 2764578
-0.023623208 0.036281131 0.038832858 2830625
-0.021816749 0.037411559 0.038733304 2764833
-0.020010278 0.038541995 0.038633749 2699038
-0.018203819 0.039672427 0.038534194 2436124
-0.016397348 0.040802862 0.03843464 2173464
-0.015569815 0.044738725 0.035528958 2238741
-0.013769817 0.045865111 0.035429761 2304283
-0.0127137 0.049089555 0.03322646 2435617
-0.01091852 0.050212927 0.033127528 2633505
-0.0091233421 0.051336296 0.033028595 2633249
-0.0073281638 0.052459665 0.032929663 2632987
-0.0055329856 0.053583037 0.032830734 2698517
-0.0029697265 0.052623488 0.034834571 2829854
-0.00013914099 0.050976768 0.037538655 2830119
0.0016673175 0.052107196 0.0374391 2830628
0.003473789 0.053237636 0.037339546 2830626
0.0052802605 0.054368071 0.037239999 2896415
0.0070867077 0.055498492 0.037140444 2765597
0.0088931788 0.056628931 0.037040889 2634780
0.01069965 0.057759367 0.036941335 2896668
0.012506107 0.058889795 0.03684178 3093535
0.014312578 0.060020234 0.036742225 3158050
0.01611905 0.061150666 0.036642671 3222823
0.01792551 0.062281098 0.036543116 4473133
0.019731982 0.063411534 0.036443569 5657907
-0.05230749 -0.021863738 0.077124819 10656925
-0.050422002 -0.020683857 0.077020913 11116925
-0.050180029 -0.013707779 0.071275882 8941918
-0.048307467 -0.012535984 0.071172684 6830390
-0.046434876 -0.011364171 0.071069486 7222798
-0.04540338 -0.0073064249 0.068146825 7619342
-0.043537226 -0.0061386395 0.068043977 7555598
-0.042525116 -0.0020929128 0.065122314 7551505
-0.04131078 0.0012261448 0.062906086 7356436
-0.039455928 0.0023868559 0.062803864 7225365
-0.037601084 0.0035475651 0.062701643 7094295
-0.035746209 0.004708291 0.062599421 7028508
-0.03389138 0.0058689853 0.062497206 6897441
-0.03292926 0.0098834243 0.059578281 6765343
-0.031980041 0.013889692 0.05666016 5978141
-0.031043738 0.017887982 0.05374267 5188896
-0.029208235 0.019036585 0.053641517 4268578
-0.028291278 0.02302267 0.050725173 3353891
-0.027156001 0.026292346 0.048513215 3091237
-0.02626322 0.030263303 0.045598205 2830628
-0.024445469 0.0314008 0.045498032 2765347
-0.02357208 0.03535971 0.042583995 2765092
-0.021760777 0.036493171 0.042484175 2896165
-0.020667415 0.039736617 0.040274523 3027235
-0.018860957 0.040867049 0.040174969 2896416
-0.017054485 0.041997485 0.040075421 2764574
-0.015248014 0.04312792 0.039975867 2567196
-0.014424607 0.047055468 0.037064686 2436127
-0.012624584 0.048181873 0.036965482 2567202
-0.011571551 0.05140008 0.03475805 2765095
-0.0097763725 0.052523449 0.034659117 2830892
-0.0079811942 0.053646818 0.034560185 2895651
-0.0061860159 0.05477019 0.034461256 2895130
-0.003624517 0.053813849 0.036469497 2961438
-0.00079627847 0.052171391 0.039179437 2896675
0.00101018 0.053301822 0.039079882 2896419
0.0028166515 0.054432258 0.038980328 2896420
0.004623123 0.055562694 0.038880773 2896672
0.0064295703 0.056693114 0.038781218 2635293
0.0082360413 0.05782355 0.038681664 2438176
0.010042513 0.058953989 0.038582109 2896676
0.011848969 0.060084417 0.038482562 3354402
0.013655441 0.061214853 0.038383007 3286816
0.015461912 0.062345292 0.038283452 3226932
0.017268373 0.063475721 0.038183898 5536072
-0.051920854 -0.016539151 0.075906739 10921088
-0.050041802 -0.015363296 0.075803183 9074273
-0.048988659 -0.01129763 0.072873525 7159356
-0.04794836 -0.0072401017 0.06994465 7289624
-0.046082228 -0.0060723331 0.06984181 7422232
-0.045061309 -0.002026828 0.066913925 7355673
-0.043201614 -0.00086308643 0.066811435 7289369
-0.041985519 0.0024527675 0.064590804 7158810
-0.040130667 0.0036134785 0.064488582 7028247
-0.038275816 0.0047741877 0.064386368 6897173
-0.036420941 0.0059349136 0.064284146 6831643
-0.035450041 0.0099491142 0.061359014 6700322
-0.033601653 0.011105781 0.06125715 6634779
-0.032650087 0.015107787 0.058333173 6240789
-0.031711437 0.019101808 0.055409815 5782301
-0.030785676 0.023087662 0.052487262 4666661
-0.028956629 0.024232224 0.052386463 3616548
-0.027819593 0.027498703 0.050170105 3289379
-0.026924465 0.031465393 0.047249231 3028004
-0.025106713 0.032602888 0.047149058 2961957
-0.024230979 0.036557537 0.044229176 2896167
-0.022419676 0.037690997 0.044129357 2896170
-0.021324556 0.040931247 0.041915305 2961959
-0.019518098 0.042061679 0.04181575 2896421
-0.017711626 0.043192115 0.041716203 2896420
-0.016879395 0.047119431 0.038798794 2698019
-0.015079396 0.048245817 0.038699597 2501667
-0.01401976 0.051463868 0.036487509 2764323
-0.012224581 0.052587241 0.036388576 3027757
-0.010429403 0.05371061 0.036289643 2962232
-0.0086342245 0.054833978 0.036190711 2962219
-0.0068390463 0.055957351 0.036091782 2962207
-0.0042793057 0.055004198 0.038104407 2962463
-0.0014534197 0.05336602 0.040820219 2896671
0.00035303878 0.054496448 0.040720664 2896675
0.0021595103 0.055626888 0.040621109 2896679
0.0039659818 0.056757323 0.040521555 2896930
0.0057724291 0.057887744 0.040422 2765853
0.0075789005 0.059018183 0.040322445 2635044
0.0093853716 0.060148619 0.040222891 3354924
0.011191828 0.061279047 0.040123343 4008485
0.0129983 0.062409487 0.040023789 4537375
0.014804771 0.063539922 0.039924234 5131841
0.016611231 0.064670354 0.039824679 6518628
-0.052875079 -0.022267638 0.083382979 10460057
-0.051793773 -0.018190077 0.080446035 10788736
-0.050725341 -0.014120674 0.077509888 9141096
-0.049669851 -0.010059273 0.074574366 7557437
-0.048627205 -0.0060060099 0.071639627 7420179
-0.046761073 -0.0048382413 0.071536794 7290905
-0.04573781 -0.0007970091 0.068603046 7158816
-0.044515103 0.0025186809 0.066377752 7026976
-0.042660259 0.0036793901 0.066275537 6960928
-0.041667655 0.0077014416 0.06334348 6895903
-0.039819263 0.0088581089 0.063241616 6765342
-0.037970878 0.010014776 0.063139752 6633759
-0.036122438 0.011171475 0.063037887 6567713
-0.035162088 0.015173237 0.060107686 6567965
-0.033320133 0.016325876 0.060006179 6502937
-0.032379139 0.02031563 0.057076965 6436896
-0.031451028 0.024297219 0.054148547 5125670
-0.030307382 0.027563531 0.051927526 3880486
-0.029403463 0.031529985 0.049000446 3552806
-0.027585709 0.032667484 0.048900269 3290406
-0.026701182 0.036621898 0.045974169 3158567
-0.024889875 0.037755359 0.045874346 3093032
-0.023788165 0.040995434 0.043655641 2961960
-0.021981694 0.04212587 0.043556087 2896420
-0.020175235 0.043256301 0.043456532 2961185
-0.019334212 0.047183391 0.040532909 3092766
-0.017534187 0.048309796 0.040433712 2829084
-0.01646797 0.051527657 0.038216956 2632990
-0.014672791 0.052651029 0.038118027 2961697
-0.012877611 0.053774398 0.038019095 3289896
-0.011082433 0.054897767 0.037920162 3159344
-0.0092872549 0.056021135 0.03782123 3028265
-0.0074920766 0.057144504 0.037722301 3028515
-0.0049340981 0.056194559 0.039739326 3028003
-0.0031340732 0.05732096 0.039640121 2962211
-0.00030409871 0.055691075 0.042361438 2896678
0.0015023728 0.05682151 0.042261884 2896681
0.0033088443 0.057951946 0.042162336 2896678
0.0051152916 0.059082367 0.042062782 2895908
0.0069217631 0.060212802 0.041963227 2895650
0.0087282341 0.061343241 0.041863672 3813152
0.011336219 0.060424589 0.043877941 4733745
0.012341162 0.063604109 0.041664563 5854019
0.014147634 0.064734548 0.041565008 7036250
-0.053563319 -0.02101648 0.085101403 10328210
-0.052479666 -0.016943188 0.082158595 10591104
-0.051408879 -0.012878055 0.079216592 9340271
-0.049529828 -0.0117022 0.079113036 8152126
-0.048478451 -0.0076491069 0.076172009 7617294
-0.047439922 -0.0036041532 0.073231772 7094298
-0.046414312 0.00043281727 0.070292167 7093543
-0.045189843 0.0037452998 0.068062477 7157799
-0.043334998 0.004906009 0.067960262 7026727
-0.042340048 0.0089237988 0.065022349 6961447
-0.040491655 0.010080466 0.064920485 6829863
-0.039516035 0.014086044 0.061983712 6698532
-0.037674081 0.015238683 0.061882202 6632993
-0.035832129 0.016391326 0.061780691 6567199
-0.034882329 0.020380858 0.05884527 6501918
-0.033046838 0.021529457 0.058744114 6436643
-0.032116376 0.025506776 0.055809833 5715240
-0.030287329 0.026651338 0.055709034 4928808
-0.029146776 0.029911418 0.053483889 4142377
-0.028246956 0.033869576 0.050551303 3356201
-0.027360078 0.037819721 0.047619335 3159082
-0.025548771 0.038953181 0.047519512 3027496
-0.024445303 0.04219006 0.045296416 2961959
-0.022638831 0.043320496 0.045196861 2896418
-0.020832373 0.044450928 0.045097306 2830365
-0.019989002 0.048373751 0.042167827 2830361
-0.018188978 0.049500152 0.04206863 2764565
-0.017121002 0.052714814 0.039847482 2698778
-0.015325823 0.053838182 0.039748553 2896415
-0.013530644 0.054961555 0.039649621 3093284
-0.011735465 0.056084923 0.039550688 3028265
-0.0099402871 0.057208292 0.039451756 3028264
-0.0081451088 0.058331665 0.039352827 2962727
-0.0063499436 0.059455026 0.039253894 2962727
-0.0037888638 0.058511324 0.041275047 3028007
-0.00096123619 0.056885701 0.04400222 3027753
0.00084523531 0.058016136 0.043902665 2699819
0.0026517068 0.059146572 0.043803111 2437675
0.0044581541 0.060276993 0.043703556 3682603
0.0062646256 0.061407428 0.043604001 4993312
0.0088660317 0.060488954 0.045622926 5519125
0.010677324 0.061622411 0.045523107 6048830
0.012488631 0.062755868 0.045423284 6576743
0.014299934 0.063889332 0.045323465 7171443
-0.053165551 -0.015696293 0.083871171 10459776
-0.052092426 -0.011635428 0.080923297 9605238
-0.050213374 -0.010459574 0.080819741 8741699
-0.04915965 -0.0064107496 0.07787285 7814673
-0.04811877 -0.0023700614 0.074926764 6897437
-0.04709081 0.0016626399 0.071981288 7093802
-0.045231115 0.0028263815 0.071878806 7289898
-0.044009738 0.0061326353 0.069644988 7158570
-0.04301244 0.010146152 0.066701218 7092522
-0.041164048 0.011302819 0.066599354 6895146
-0.040186081 0.015304136 0.063656725 6764068
-0.03834413 0.016456775 0.063555211 6699038
-0.037385523 0.020446083 0.060613573 6633244
-0.035550028 0.021594681 0.06051242 6566682
-0.033714537 0.022743279 0.060411263 6502172
-0.032781731 0.026716337 0.057471126 6239518
-0.030952685 0.027860899 0.057370327 6042658
-0.029810369 0.031117775 0.055140786 4731685
-0.028908199 0.035071664 0.052202333 3421223
-0.028018977 0.039017547 0.049264517 3225129
-0.026908895 0.04225425 0.047036745 3027495
-0.025102437 0.043384679 0.04693719 2962214
-0.023295965 0.044515114 0.046837635 2896161
-0.022443807 0.048437715 0.04390195 2765084
-0.020643795 0.049564108 0.043802753 2633753
-0.01884377 0.050690509 0.043703556 2699287
-0.017043771 0.051816896 0.043604359 2829851
-0.015243748 0.0529433 0.043505155 2896927
-0.013443736 0.054069694 0.043405958 2962467
-0.011643726 0.055196088 0.04330676 2962984
-0.010593319 0.058395453 0.041082282 3028264
-0.008798141 0.059518825 0.040983353 2962729
-0.0070029758 0.060642187 0.04088442 2962729
-0.0044436562 0.059701681 0.042909965 3093800
-0.0026436462 0.060828075 0.042810768 3224361
-0.00084363436 0.061954468 0.042711571 2568746
0.001994573 0.060341191 0.045443885 1978921
0.0038010203 0.061471611 0.04534433 4535081
0.0056074918 0.062602051 0.045244776 7158049
0.0074139633 0.06373249 0.045145221 7225113
0.0092204195 0.064862914 0.045045666 7358526
-0.053851437 -0.014449408 0.085583724 10131839
-0.051965926 -0.013269512 0.085479811 9540221
-0.050896913 -0.0092169549 0.082526445 9003593
-0.049017861 -0.0080411006 0.082422882 7945749
-0.048797615 -0.0011359733 0.076621741 6897697
-0.04693146 3.1812117e-05 0.076518893 7094061
-0.045907613 0.0040562004 0.073567927 7289901
-0.044684477 0.0073592579 0.07132972 7158317
-0.043684833 0.011368509 0.06838008 7092781
-0.041836441 0.012525177 0.068278223 6961198
-0.040856127 0.016522225 0.065329731 6829604
-0.039014176 0.017674863 0.065228224 6764315
-0.038053222 0.021659909 0.062280722 6699289
-0.036217727 0.022808507 0.062179569 6633495
-0.034382239 0.023957105 0.062078413 6567702
-0.032546729 0.025105709 0.06197726 6305301
-0.031618036 0.029070452 0.059031613 6107931
-0.029789004 0.030215006 0.058930814 5190434
-0.028649736 0.03346568 0.056697141 4338469
-0.027751695 0.037411254 0.053753197 3682857
-0.02686657 0.04134883 0.050809864 3093031
-0.025759578 0.044579305 0.048577972 2765093
-0.023953106 0.04570974 0.048478417 2502944
-0.022146648 0.046840172 0.048378862 2634011
-0.021298585 0.050754465 0.045437664 2830874
-0.019498561 0.051880866 0.045338467 2895642
-0.017698562 0.053007253 0.04523927 2895388
-0.015898539 0.054133657 0.045140073 3027231
-0.014098527 0.055260051 0.045040876 3093795
-0.012298517 0.056386445 0.044941679 3158823
-0.010498494 0.057512846 0.044842474 3158569
-0.0094511695 0.060705978 0.042613871 3224364
-0.0076560043 0.061829343 0.042514939 3290411
-0.0050984467 0.060892038 0.044544883 3094058
-0.0032984368 0.062018432 0.044445686 2963241
-0.0014984249 0.063144825 0.044346489 3814185
0.00030159811 0.064271227 0.044247285 4666408
0.0021016099 0.06539762 0.044148088 5977895
0.0049503506 0.063796677 0.046885557 7356706
0.0067568221 0.064927116 0.046786003 7290654
0.0085632782 0.06605754 0.046686448 7226431
-0.05453733 -0.01320252 0.087296285 9802626
-0.052651811 -0.012022624 0.087192371 9540737
-0.051580451 -0.0079743285 0.08423315 9334354
-0.0497014 -0.0067984741 0.084129587 8142371
-0.048649419 -0.0027622078 0.081171334 6962986
-0.047610309 0.0012659002 0.078213878 7159857
-0.046584118 0.0052860267 0.075257048 7355951
-0.044724423 0.0064497683 0.075154565 7223852
-0.044357225 0.012590867 0.070058949 7092778
-0.042508833 0.013747534 0.069957092 6961704
-0.040660448 0.014904201 0.069855228 6895651
-0.039684221 0.018892955 0.066901229 6829854
-0.03784227 0.020045597 0.066799715 6764826
-0.036885425 0.024022326 0.063846715 6699799
-0.035049934 0.025170924 0.063745558 6633241
-0.033214428 0.026319528 0.063644402 6436636
-0.031378936 0.027468128 0.063543253 6239519
-0.030454356 0.031424563 0.0605921 5715490
-0.02931333 0.03467204 0.058354039 5256226
-0.027489129 0.03581357 0.058253508 4206883
-0.02752547 0.042546656 0.052455038 3158564
-0.026416715 0.045773931 0.050218746 2632997
-0.024610244 0.046904366 0.050119191 2108190
-0.022803785 0.048034798 0.050019637 2566680
-0.020997314 0.049165234 0.04992009 3091225
-0.019190842 0.05029567 0.049820535 3025946
-0.018353354 0.054197617 0.046874195 3026461
-0.016553331 0.055324018 0.046774991 3157792
-0.014753319 0.056450412 0.046675794 3288866
-0.012953309 0.057576805 0.046576597 3288868
-0.011153286 0.058703206 0.0464774 3355175
-0.010104202 0.061893139 0.044244397 3485737
-0.0083090365 0.063016504 0.044145465 3617067
-0.0057532392 0.062082395 0.046179801 3158572
-0.0039532292 0.063208789 0.046080604 2700843
-0.0021532173 0.064335182 0.045981407 4994090
-0.00035319431 0.065461583 0.04588221 7353896
0.0014468175 0.066587977 0.045783013 7420967
0.015018826 0.037079509 0.077662602 7553061
0.016891429 0.038251329 0.077559404 7356452
0.018764019 0.039423138 0.077456206 7163208
-0.053337704 -0.010775732 0.088904947 9143430
-0.052263997 -0.0067317095 0.085939847 9075291
-0.050384946 -0.0055558551 0.085836291 8016177
-0.049330611 -0.0015238505 0.082872182 6896947
-0.048289154 0.0024999883 0.079908863 7093814
-0.047260616 0.0065158494 0.076946169 7291185
-0.045400921 0.007679591 0.076843686 7159084
-0.044179112 0.010973218 0.074596956 7093031
-0.043181226 0.014969891 0.071635947 7093026
-0.041332841 0.016126558 0.07153409 7093025
-0.0394844 0.017283257 0.071432218 6961697
-0.038512316 0.021263685 0.068472728 6830620
-0.036670361 0.022416323 0.068371214 6764823
-0.035717633 0.026384747 0.065412708 6699037
-0.033882126 0.027533351 0.065311551 6567204
-0.032046635 0.028681947 0.065210402 6435875
-0.030211139 0.029830547 0.065109245 6108450
-0.02929065 0.033778694 0.062152594 5781024
-0.027461605 0.034923255 0.062051799 5255710
-0.02725642 0.040952936 0.056955084 4731682
-0.026373062 0.044877939 0.054000393 4336934
-0.024561759 0.046011399 0.053900573 3943453
-0.023460923 0.049229421 0.051660419 4008981
-0.021654451 0.050359856 0.051560864 4074775
-0.01984798 0.051490292 0.051461309 4009498
-0.018041519 0.05262072 0.051361755 4009757
-0.01720812 0.056514371 0.048409909 4010017
-0.014428576 0.054881595 0.051162653 4010529
-0.012622118 0.056012023 0.051063098 3879458
-0.011808075 0.05989356 0.04811231 3748388
-0.010757234 0.063080296 0.045874923 4141607
-0.0089620687 0.064203657 0.045775991 4469291
-0.0064080278 0.063272752 0.047814719 4600879
-0.0046080179 0.064399146 0.047715522 4732461
-0.002808006 0.065525539 0.047616325 5781291
-0.001007983 0.06665194 0.047517121 6830377
0.013502669 0.034423131 0.082315467 6896679
0.014337633 0.038317867 0.07936345 7028520
0.016210236 0.039489686 0.079260245 7096874
0.018082825 0.040661499 0.079157047 7231057
-0.05402359 -0.0095288437 0.090617508 8682117
-0.052947536 -0.005489083 0.087646551 8875879
-0.051068485 -0.0043132287 0.087542996 7889994
-0.05001181 -0.00028549694 0.084573023 6901820
-0.048968002 0.0037340801 0.08160384 7027758
-0.047937114 0.007745672 0.07863529 7225133
-0.046077419 0.0089094136 0.078532808 7159852
-0.044217728 0.010073157 0.078430317 7093288
-0.042998999 0.013360557 0.076179467 7158821
-0.042005233 0.017348912 0.073212959 7289637
-0.040156793 0.018505611 0.073111087 7093028
-0.039182361 0.02248178 0.070145741 6961441
-0.03734041 0.023634419 0.070044234 6895646
-0.035498444 0.024787068 0.069942728 6829860
-0.033656504 0.025939699 0.069841214 6763307
-0.032714337 0.029895781 0.066877551 6697767
-0.030878842 0.031044377 0.066776402 6500900
-0.02904335 0.032192975 0.066675246 6304286
-0.027207844 0.033341579 0.066574089 6304537
-0.026297912 0.037277374 0.06361229 6304029
-0.025167901 0.040509354 0.061366234 6041121
-0.024282161 0.044430021 0.058405768 5844250
-0.023409341 0.048342697 0.055445921 5450772
-0.021598034 0.049476158 0.055346102 5123861
-0.01978673 0.050609618 0.055246279 5059094
-0.018698659 0.053815346 0.053002536 4993563
-0.016892187 0.054945786 0.052902982 4862496
-0.015085716 0.056076221 0.052803434 4731424
-0.013279257 0.057206649 0.05270388 4469025
-0.011472786 0.058337089 0.052604325 4207395
-0.010662854 0.06221031 0.049648032 4797733
-0.0088628437 0.0633367 0.049548835 5387817
0.0032840269 0.036431864 0.07872425 6043693
0.0061660651 0.034868963 0.081477083 6764585
0.0080386549 0.036040775 0.081373885 6568230
0.010940075 0.034489904 0.084125727 6371617
0.012819126 0.035665762 0.084022179 6435869
0.014698163 0.036841605 0.083918616 6503726
0.016577214 0.038017463 0.083815068 6904640
0.018456263 0.039193314 0.083711512 7363930
0.021396359 0.037666745 0.086461142 7831412
0.02328187 0.038846642 0.086357228 8287862
-0.053631075 -0.0042464603 0.089353256 10851188
-0.051752023 -0.0030706059 0.0892497 9666659
-0.050693002 0.00095285662 0.086273856 8416836
-0.049646851 0.0049681719 0.083298832 7617830
-0.048613615 0.0089754947 0.080324411 6831657
-0.046753921 0.010139236 0.080221929 6897196
-0.04489423 0.01130298 0.080119438 7028266
-0.043673739 0.014587176 0.077864192 7092777
-0.042677622 0.018571265 0.074891821 7158056
-0.040829182 0.019727964 0.074789941 7026728
-0.039852407 0.023699868 0.071818747 6895654
-0.037132405 0.0220413 0.074586228 6895397
-0.03616849 0.026005156 0.071615726 6829868
-0.03432655 0.027157787 0.071514219 6763827
-0.032484595 0.028310429 0.071412712 6698284
-0.030642657 0.02946306 0.071311198 6501414
-0.028800702 0.030615702 0.071209691 6370333
-0.026041975 0.028981363 0.073975027 6435093
-0.025116796 0.032920983 0.071006671 6500120
-0.024204545 0.036852606 0.068038933 6303260
-0.023305161 0.040776063 0.065071978 6107416
-0.023125641 0.046769612 0.059956618 5845524
-0.022256933 0.050673984 0.056991279 5649427
-0.02044563 0.051807445 0.056891456 5583891
-0.018634338 0.052940898 0.056791637 5584153
-0.016823035 0.054074358 0.056691818 5452063
-0.015011718 0.055207826 0.056591999 5386783
-0.013200413 0.056341287 0.056492176 5255200
-0.011389109 0.057474747 0.056392357 5060386
-0.010323454 0.060662154 0.054145552 5453092
0.0017396808 0.033763688 0.083384313 5847847
0.0036122706 0.0349355 0.083281115 6174763
0.0064984448 0.033380825 0.086039536 6502438
0.0093974695 0.031834289 0.088797152 6240290
0.010256533 0.035732526 0.085832432 5978394
0.012135584 0.036908384 0.085728876 6109715
0.01401462 0.038084228 0.085625321 6306612
0.015893672 0.039260086 0.085521773 6840406
0.018824974 0.037733741 0.088277608 7431523
-0.054314621 -0.0030038338 0.09105996 12890512
-0.052435569 -0.0018279795 0.090956405 11446399
-0.052191846 0.0050344709 0.085096657 9992271
-0.050325699 0.0062022563 0.084993809 8207903
-0.049290117 0.010205325 0.082013547 6503975
-0.047430422 0.011369066 0.081911065 6700591
-0.045570731 0.01253281 0.081808574 6962732
-0.044348478 0.01581379 0.07954891 7026729
-0.042493604 0.016974516 0.079446688 7092267
-0.041501578 0.020950327 0.076468825 6961197
-0.039653189 0.022106992 0.076366961 6895400
-0.037804801 0.023263657 0.076265097 6895139
-0.036838535 0.027223248 0.073288739 6894886
-0.034996595 0.028375879 0.073187232 6763817
-0.032259583 0.026733691 0.075959504 6698278
-0.030411171 0.027890375 0.075857639 6567203
-0.028562786 0.029047044 0.075755775 6501153
-0.026714372 0.030203724 0.075653911 6565662
-0.024865983 0.031360395 0.075552046 6696476
-0.023017569 0.032517076 0.075450167 6499867
-0.022102948 0.036444347 0.072476663 6369816
-0.021201245 0.040363636 0.069503769 6304022
-0.019365754 0.041512232 0.06940262 6238231
-0.017530259 0.042660832 0.069301464 6172696
-0.015694767 0.043809429 0.069200307 6172698
-0.012893194 0.042207539 0.071969114 6107164
-0.0083769066 0.03580761 0.079758838 6107165
-0.011901421 0.052054353 0.063875765 6041629
-0.0053965328 0.040188771 0.077402279 5977376
-0.0027978234 0.039298836 0.079451375 6108451
0.0010584854 0.035002049 0.085085161 6305062
0.0029310752 0.036173861 0.084981963 6305066
0.0058149043 0.034623455 0.08774624 6304803
0.0076939426 0.035799298 0.087642692 5910811
0.0095729921 0.036975153 0.087539136 5585449
0.011452043 0.038151007 0.087435581 5855031
0.01333108 0.039326858 0.087332033 6118987
0.015210131 0.040502708 0.087228477 6776159
0.017089181 0.041678566 0.087124921 7498081
-0.054998159 -0.0017612185 0.09276665 12829356
-0.053928006 0.0022577476 0.089778751 11515292
-0.052870698 0.0062685627 0.086791635 10257242
-0.051004544 0.0074363481 0.086688802 8337176
-0.049966615 0.011435144 0.083702661 6501925
-0.04810692 0.012598885 0.083600178 6766131
-0.046247229 0.013762629 0.083497688 7028526
-0.044387534 0.01492637 0.083395205 7027498
-0.043168344 0.01820115 0.081131421 7093038
-0.041313522 0.019361842 0.081029199 7027507
-0.039458647 0.020522568 0.080926985 6961962
-0.037603796 0.021683276 0.080824763 6961698
-0.03662879 0.025642687 0.077842101 6961697
-0.034780368 0.026799379 0.077740237 6830112
-0.032931976 0.027956048 0.077638373 6698784
-0.031083563 0.029112728 0.077536508 6567201
-0.029235179 0.030269397 0.077434644 6501156
-0.027386764 0.03142608 0.07733278 6500392
-0.025538376 0.032582745 0.077230915 6565409
-0.023689961 0.033739433 0.077129036 6434586
-0.022772994 0.037662435 0.074149668 6370073
-0.019993158 0.036052778 0.076925308 6304281
-0.018144757 0.037209451 0.076823443 6304283
-0.016296355 0.038366131 0.076721579 6238494
-0.014447955 0.039522804 0.076619714 6237724
-0.011635834 0.037933264 0.079393677 6238490
-0.0097809862 0.039093975 0.079291455 6172954
-0.0079261381 0.040254686 0.079189233 6172699
-0.005334015 0.039364912 0.081242979 6173470
