# .PCD v0.7 - Point Cloud Data file format
VERSION 0.7
FIELDS x y z rgba
SIZE 4 4 4 4
TYPE F F F U
COUNT 1 1 1 1
WIDTH 1007
HEIGHT 1
VIEWPOINT 0 0 0 1 0 0 0
POINTS 1007
DATA ascii
-0.011249853 -0.088512376 -0.0044184458 15448634
-0.0070988294 -0.089349627 -0.0021126121 14212181
-0.0053220429 -0.088097125 -0.0023103841 15466095
-0.0035452507 -0.086844623 -0.0025081523 16705121
-0.00093270559 -0.067126594 -0.015946463 12362265
0.00081462134 -0.065894857 -0.016140953 13544193
0.0025619501 -0.064663127 -0.016335443 14727435
0.0018481519 -0.061402775 -0.019023942 15190037
0.001738796 -0.058657248 -0.021087717 15721746
0.0010018144 -0.05541335 -0.023773555 16181776
0.0027320888 -0.054193635 -0.023966145 16706323
0.0025979299 -0.051465593 -0.026027165 16706582
0.0043235589 -0.050249156 -0.026219238 16706317
0.0060491879 -0.049032718 -0.026411314 16706052
0.0052703377 -0.045818333 -0.029092491 16708100
0.0044790101 -0.042612635 -0.031772364 16708356
0.0061922311 -0.04140494 -0.031963058 16708355
0.0079054646 -0.040197238 -0.032153755 16708354
0.0096186735 -0.038989555 -0.032344449 16708610
0.0068947664 -0.034323677 -0.036885072 16708610
0.008597143 -0.033123631 -0.037074558 16710401
0.010299508 -0.031923592 -0.037264045 16710145
0.012001874 -0.030723551 -0.037453532 16711286
0.011783997 -0.02805452 -0.039505225 16645868
0.013481716 -0.026857754 -0.039694194 16645875
0.015179437 -0.02566099 -0.039883163 16645883
0.016877145 -0.024464233 -0.040072128 16711339
0.018574877 -0.023267459 -0.040261097 16711259
0.020272596 -0.022070693 -0.040450066 16711244
0.019372806 -0.018941564 -0.043117788 16711229
0.023668036 -0.019677162 -0.040828004 16711200
0.025365757 -0.018480396 -0.041016974 16711170
0.027063476 -0.017283631 -0.041205943 16711170
0.030727953 -0.017523067 -0.039537881 16711169
0.032430317 -0.016323028 -0.039727367 16710657
0.036767401 -0.017029118 -0.037442245 16708609
0.038475968 -0.015824709 -0.037632421 16708367
0.040184543 -0.014620292 -0.037822597 16246301
0.043883141 -0.014835672 -0.036158334 15849745
0.045596361 -0.013627979 -0.036349028 14664197
0.052641101 -0.016188908 -0.031597335 13548044
0.05436673 -0.014972469 -0.031789411 13021460
0.056092352 -0.013756039 -0.031981487 12560944
0.057817988 -0.01253959 -0.032173563 11773005
0.061561532 -0.012723282 -0.030514296 11050593
0.063291825 -0.01150356 -0.03070689 10590326
0.062994868 -0.0088902805 -0.032749787 10196350
0.064720482 -0.0076738503 -0.032941859 9671303
0.066446126 -0.0064574014 -0.033133935 9148775
0.070212923 -0.0066247024 -0.031477258 11510087
0.083681315 -0.003716521 -0.028132575 15587344
0.085422412 -0.0024891794 -0.028326372 14929413
0.087163553 -0.0012618043 -0.028520172 14268163
0.088904694 -3.4432858e-05 -0.028713977 13284865
0.088562764 0.0025471458 -0.030751862 12362780
0.090299249 0.003771239 -0.030945145 11374391
0.092035733 0.0049953284 -0.031138428 10457446
0.090976261 0.0080118999 -0.033788372 10393493
0.092706539 0.0092316121 -0.033980962 10393485
0.0923305 0.011789145 -0.036015056 10393478
-0.027289877 -0.10193969 0.0017766077 8429414
-0.025513077 -0.10068718 0.0015788358 12041532
-0.023736296 -0.099434674 0.0013810676 12695827
-0.024288075 -0.096065961 -0.0013311151 13353482
-0.022517482 -0.094817825 -0.0015281942 14207746
-0.020746903 -0.093569703 -0.0017252732 15062565
-0.018976299 -0.092321552 -0.0019223541 15851849
-0.019559162 -0.08897464 -0.004631158 16576062
-0.017794779 -0.087730885 -0.0048275478 16645683
-0.016030384 -0.086487122 -0.0050239377 16711194
-0.011893941 -0.08732903 -0.0027106721 15856386
-0.010123363 -0.086080901 -0.0029077511 15001910
-0.010737227 -0.082755841 -0.0056131054 15858795
-0.0089728329 -0.081512079 -0.0058094952 16711245
-0.0040086107 -0.063921213 -0.016763186 12360740
-0.0041023251 -0.061168958 -0.018832996 13942785
-0.0023658406 -0.059944868 -0.019026279 15523590
-0.00062935613 -0.058720775 -0.019219562 15853324
-0.0013578944 -0.055476662 -0.021912072 16183302
0.00037239306 -0.054256938 -0.022104666 16445185
0.00024456903 -0.051528729 -0.024170682 16707329
0.001970198 -0.050312288 -0.024362758 16707073
0.0012060013 -0.047093317 -0.027051296 16707074
0.00042934949 -0.043883007 -0.029738536 16708099
0.0021425714 -0.042675316 -0.02992923 16709122
0.0038557923 -0.041467622 -0.030119924 16709121
0.0055690133 -0.040259931 -0.030310618 16709122
0.0072822464 -0.039052229 -0.030501315 16708867
0.007100156 -0.036362275 -0.032561284 16708866
0.0062754946 -0.033185918 -0.035243098 16709889
0.0060732579 -0.030510167 -0.037300833 16711169
0.0077709774 -0.029313402 -0.037489802 16711169
0.009468697 -0.028116636 -0.037678771 16711295
0.011166418 -0.026919872 -0.03786774 16645886
0.0102999 -0.023773024 -0.04054489 16645886
0.011991421 -0.022580629 -0.04073317 16645886
0.013682931 -0.02138824 -0.040921446 16711334
0.015374453 -0.020195846 -0.041109726 16711247
0.017065976 -0.019003449 -0.041298002 16711249
0.018757485 -0.01781106 -0.041486282 16711252
0.020449005 -0.016618665 -0.041674562 16711210
0.024748178 -0.017345747 -0.039379489 16711169
0.026445897 -0.016148983 -0.039568458 16711169
0.030108681 -0.016385306 -0.037895907 16711169
0.031811047 -0.015185267 -0.038085394 16710657
0.033513423 -0.013985218 -0.03827488 16709121
0.037854441 -0.014682805 -0.035984464 16708354
0.039563015 -0.013478388 -0.03617464 16443140
0.043259922 -0.013690661 -0.034505893 16242690
0.044973142 -0.012482968 -0.034696586 14991873
0.049349912 -0.013155463 -0.032410067 13742868
0.053738996 -0.013819164 -0.030125003 12890151
0.055464618 -0.012602733 -0.030317079 12037705
0.057190254 -0.011386285 -0.030509155 11377516
0.060932111 -0.011566874 -0.028845407 10655863
0.0626624 -0.010347152 -0.029038001 10261635
0.062367134 -0.0077369753 -0.031085379 9931907
0.064092748 -0.0065205451 -0.031277452 10854020
0.065818392 -0.0053040963 -0.031469528 11840066
0.083047949 -0.0025528576 -0.026453217 15717903
0.082721658 3.5445206e-05 -0.028497141 14665733
0.086530186 -9.814091e-05 -0.026840815 13614083
0.086194627 0.0024836278 -0.028883711 12495361
0.087931082 0.0037077023 -0.02907699 11312167
0.089667574 0.0049317954 -0.029270273 10916429
0.088616565 0.0079485923 -0.031926889 10523252
0.090346836 0.0091683082 -0.032119483 10458267
0.089977175 0.011726035 -0.03415858 10392468
0.088896669 0.014722041 -0.036811911 10392973
-0.026159419 -0.099499673 0.003292596 11317569
-0.024382638 -0.098247185 0.0030948278 12368415
-0.024932163 -0.094882607 0.00037665851 13418000
-0.02549416 -0.091526732 -0.0023402032 13944321
-0.021390991 -0.09238635 -1.7499551e-05 14536723
-0.019620387 -0.091138206 -0.00021458045 15523877
-0.020200992 -0.087795436 -0.0029293709 16508714
-0.018436609 -0.086551681 -0.0031257607 16580142
-0.016672214 -0.085307911 -0.0033221506 16711192
-0.012538029 -0.086145677 -0.0010028984 16244737
-0.013143441 -0.082820393 -0.0037149284 15785774
-0.011379058 -0.08157663 -0.0039113183 16251738
-0.012003006 -0.078264527 -0.006621195 16710719
-0.010244822 -0.077025138 -0.0068168938 16711205
-0.019365044 -0.063756235 -0.020393454 16177722
-0.017639415 -0.062539801 -0.02058553 15706936
-0.018333144 -0.059276879 -0.023287643 12877111
-0.016613714 -0.058064811 -0.023479026 10124589
-0.014894283 -0.056852739 -0.023670413 11238948
-0.0064704772 -0.061232485 -0.016964838 12436247
-0.0047340039 -0.060008403 -0.017158121 14407178
-0.0029975185 -0.058784313 -0.017351404 16374793
-0.001261034 -0.05756022 -0.017544687 16507657
-0.0019873185 -0.054320246 -0.020243179 16707590
-0.00210879 -0.051591869 -0.022314202 16707842
-0.00038316101 -0.050375432 -0.022506278 16709390
-0.0011388818 -0.047156211 -0.025201488 16711194
0.00058052596 -0.045944158 -0.025392871 16710158
-0.00019387109 -0.042737994 -0.02808609 16709123
0.0015193508 -0.0415303 -0.028276784 16709123
0.0013529151 -0.038833618 -0.030342802 16709380
0.0030614785 -0.037629209 -0.030532978 16710156
0.0047700661 -0.036424782 -0.030723158 16711189
0.0039538583 -0.033248197 -0.033411637 16711180
0.0037579718 -0.030572275 -0.035474375 16711171
0.0029185116 -0.027412087 -0.038160272 16711170
0.0046100337 -0.02621969 -0.038348552 16710913
0.0063015437 -0.025027301 -0.038536828 16711253
0.0079930658 -0.023834907 -0.038725108 16711337
0.0096845748 -0.022642517 -0.038913384 16711346
0.011376097 -0.021450123 -0.039101664 16711355
0.013067608 -0.020257734 -0.03928994 16711025
0.014759128 -0.019065339 -0.03947822 16709160
0.016450651 -0.017872943 -0.039666496 16711226
0.01814216 -0.016680554 -0.039854776 16711245
0.01983368 -0.015488159 -0.040043056 16711215
0.021525193 -0.01429577 -0.040231332 16711185
0.025828319 -0.015014332 -0.037930969 16711177
0.027526027 -0.013817576 -0.038119934 16711169
0.029223746 -0.01262081 -0.038308904 16710914
0.030921465 -0.011424045 -0.038497873 16709634
0.034596518 -0.011647418 -0.03682239 16708354
0.036298882 -0.010447378 -0.037011873 16705794
0.040650062 -0.011132068 -0.034716863 16703746
0.042358641 -0.00992765 -0.034907039 15319809
0.046063155 -0.010130254 -0.033234835 13942300
0.050443858 -0.010794244 -0.030943025 12756023
0.054836884 -0.011449434 -0.028652675 11576661
0.056562528 -0.010232985 -0.028844751 10916467
0.060302686 -0.01041046 -0.027176514 10326397
0.062032975 -0.0091907382 -0.027369108 9998727
0.063763253 -0.0079710241 -0.027561698 9672292
0.065493546 -0.0067512915 -0.027754296 12102210
0.067223802 -0.005531596 -0.027946882 14599735
0.075875193 0.00056699105 -0.028909847 16247575
0.080353521 -2.8074719e-05 -0.026628986 15846413
0.082089983 0.0011959998 -0.026822265 14402051
0.083826467 0.0024200929 -0.027015548 13020432
0.085562952 0.0036441823 -0.027208835 11640349
0.087299407 0.0048682569 -0.027402114 10328124
0.089035891 0.00609235 -0.027595397 10458460
0.087987147 0.0091050062 -0.030257996 10589560
0.089717411 0.010324722 -0.03045059 10458771
0.089349441 0.012879334 -0.032494176 10392976
0.085467279 0.0176467 -0.037620805 10392717
-0.026805764 -0.098312184 0.0050063487 10069574
-0.025028979 -0.097059682 0.0048085805 11514156
-0.025576251 -0.093699254 0.0020844322 13023766
-0.023805657 -0.092451125 0.0018873531 13352705
-0.022035079 -0.091202997 0.0016902741 13683201
-0.020264471 -0.089954853 0.0014931932 14669058
-0.018493893 -0.088706732 0.001296116 15589654
-0.016723299 -0.087458596 0.0010990351 16118826
-0.017314045 -0.084128708 -0.001620356 16711189
-0.013182113 -0.084962323 0.00070487522 15915521
-0.011411535 -0.083714202 0.00050779618 15193637
-0.012020892 -0.080397427 -0.0022095237 15787850
-0.010256495 -0.079153657 -0.0024059135 16382258
-0.0084921159 -0.077909902 -0.0026023015 16513819
-0.021718405 -0.063819371 -0.018536972 16711208
-0.02239747 -0.060551852 -0.021246448 16448566
-0.02067804 -0.059339784 -0.021437833 16186140
-0.018958621 -0.058127724 -0.021629218 14806018
-0.017239191 -0.056915652 -0.021820603 13426177
-0.01551976 -0.05570358 -0.022011988 13952001
-0.011364657 -0.056520753 -0.01968942 14543626
-0.0078075631 -0.056822978 -0.017996509 15527955
-0.0060772886 -0.055603266 -0.018189102 16512269
-0.0043470152 -0.054383554 -0.018381696 16578823
-0.0026167408 -0.053163838 -0.018574286 16711173
-0.0027365219 -0.050438568 -0.020649794 16711172
-0.0034837872 -0.047219127 -0.023351679 16711195
-0.0017643571 -0.046007056 -0.023543064 16711219
-0.0025303219 -0.042800684 -0.026242955 16711195
-0.00081708888 -0.041592982 -0.026433649 16708867
-0.00097717671 -0.038896121 -0.028504666 16708869
0.00073138671 -0.037691712 -0.028694842 16709640
-7.0155715e-05 -0.034510527 -0.031390689 16711191
0.0016322219 -0.03331048 -0.031580176 16711207
0.0014426722 -0.030634386 -0.033647917 16711190
0.00061168056 -0.027473969 -0.03634049 16711173
0.0023031896 -0.026281582 -0.036528766 16711171
0.0039947117 -0.025089186 -0.036717046 16711169
0.0056862216 -0.023896798 -0.036905322 16711211
0.0073777437 -0.022704402 -0.037093602 16711253
0.0090692537 -0.021512013 -0.037281878 16710247
0.010760775 -0.020319618 -0.037470158 16711289
0.012452285 -0.019127229 -0.037658434 16710717
0.014143807 -0.017934833 -0.037846714 16710913
0.01583533 -0.016742438 -0.03803499 16711204
0.017526839 -0.015550049 -0.03822327 16711239
0.019218359 -0.014357653 -0.03841155 16711220
0.020909868 -0.013165265 -0.038599826 16711201
0.022601403 -0.011972861 -0.038788106 16711185
0.024292912 -0.010780473 -0.038976382 16711170
0.025984436 -0.0095880767 -0.039164662 16711171
0.030303886 -0.010289394 -0.03686038 16710404
0.032001603 -0.009092629 -0.037049349 16708610
0.033699326 -0.0078958636 -0.037238318 16707329
0.037381992 -0.0081095714 -0.03555939 16706049
0.041737113 -0.0087857442 -0.033259083 15717890
0.045439936 -0.0089852428 -0.031582393 14797093
0.047153145 -0.0077775596 -0.031773087 12555848
0.051537801 -0.0084330244 -0.029475987 10329441
0.055934794 -0.0090796817 -0.027180344 10194554
0.057660423 -0.0078632422 -0.02737242 10129026
0.059386052 -0.0066468026 -0.027564492 10915723
0.061111674 -0.0054303724 -0.027756568 11771974
0.062837288 -0.0042139422 -0.02794864 13683457
0.066594377 -0.0043751858 -0.026277989 15658539
0.065998629 0.0055070939 -0.033870727 16711249
0.070451483 0.004899702 -0.031581219 15786773
0.076976046 0.0029431172 -0.027433548 14926347
0.078706324 0.0041628294 -0.027626138 13349633
0.083194785 0.0035806494 -0.025340673 11771421
0.084931269 0.0048047388 -0.025533959 11114809
0.086667731 0.0060288133 -0.025727239 10523986
0.085627444 0.0090417042 -0.02839651 10524012
0.087357722 0.010261416 -0.028589103 10524028
0.086996071 0.012816189 -0.030637693 10393228
0.083130859 0.017584033 -0.035777669 10327693
-0.026220338 -0.092515901 0.0037922096 12630310
-0.024449745 -0.091267772 0.0035951287 12761353
-0.020344945 -0.092114672 0.0059290249 12894725
-0.020908559 -0.0887715 0.0032009687 13814529
-0.01913798 -0.087523371 0.0030038897 14734862
-0.017367387 -0.086275235 0.0028068107 15723290
-0.017955879 -0.082949504 8.1434846e-05 16703501
-0.013826201 -0.08377897 0.0024126507 15652097
-0.014427105 -0.080461979 -0.000311343 14603539
-0.01504034 -0.077153787 -0.0030338764 15324453
-0.013282159 -0.075914398 -0.0032295752 16113703
-0.013316518 -0.073133215 -0.0053188875 16378921
-0.024742361 -0.060614757 -0.019396642 16708421
-0.023022942 -0.059402697 -0.019588027 16710241
-0.021303512 -0.058190629 -0.019779412 16710731
-0.019584093 -0.056978565 -0.019970797 16711222
-0.020285776 -0.053732611 -0.022683568 16711203
-0.018572541 -0.052524909 -0.022874264 16711183
-0.014425813 -0.053342365 -0.02054495 16711183
-0.012706392 -0.052130304 -0.020736335 16711183
-0.010986962 -0.050918229 -0.02092772 16708876
-0.0092675434 -0.049706168 -0.021119103 16710409
-0.0075481115 -0.048494101 -0.02131049 16710150
-0.008293204 -0.04527875 -0.024018431 16709890
-0.0065799835 -0.044071056 -0.024209125 16710414
-0.0048667504 -0.042863354 -0.024399819 16711195
-0.0031535416 -0.041655671 -0.024590513 16709903
-0.0033072899 -0.038958646 -0.026666535 16708867
-0.0015987023 -0.037754219 -0.026856713 16709380
-0.0023917919 -0.03457281 -0.029559229 16710149
-0.0025703465 -0.031893268 -0.031632494 16709132
-0.00087262644 -0.030696506 -0.03182146 16708116
0.00082509359 -0.029499739 -0.032010432 16708363
-3.6433339e-06 -0.026343461 -0.03470898 16708867
0.0016878657 -0.025151074 -0.034897257 16709634
0.0033793878 -0.023958677 -0.035085537 16710401
0.0050708978 -0.022766288 -0.035273813 16711247
0.0067624198 -0.021573894 -0.035462093 16711325
0.0084539289 -0.020381505 -0.035650369 16711314
0.010145451 -0.01918911 -0.035838649 16711304
0.011836961 -0.017996721 -0.036026925 16711240
0.013528482 -0.016804326 -0.036215205 16711176
0.015220004 -0.01561193 -0.036403481 16711207
0.01497012 -0.01298267 -0.038468808 16711239
0.016656997 -0.01179355 -0.03865657 16711232
0.020294547 -0.012034757 -0.036968317 16711226
0.021986078 -0.010842353 -0.037156597 16711208
0.023677588 -0.009649965 -0.037344873 16711191
0.025369111 -0.0084575685 -0.037533153 16711197
0.027060632 -0.0072651729 -0.037721433 16711204
0.031384025 -0.00795798 -0.035411865 16710171
0.033081748 -0.0067612142 -0.035600834 16709139
0.034779467 -0.0055644489 -0.035789803 16707607
0.038465098 -0.0057717632 -0.034106903 16180252
0.04282416 -0.0064394241 -0.031801306 15717694
0.044532724 -0.0052350154 -0.031991482 12355936
0.048243161 -0.005424845 -0.030311344 9079374
0.052631769 -0.0060717901 -0.028008953 9472829
0.057032689 -0.0067099389 -0.025708009 9931846
0.056070607 -0.0036476655 -0.028391719 11898448
0.057790037 -0.0024355957 -0.028583106 13880627
0.05680928 0.00061362516 -0.031264812 15265047
0.058522496 0.0018213177 -0.031455506 16708651
0.061618458 0.0068091461 -0.033893246 16711043
0.063327022 0.0080135548 -0.034083422 16710996
0.067088604 0.0078597823 -0.032408975 15391782
0.074288949 0.0054544285 -0.027628753 14070803
0.078076899 0.0053192377 -0.025957249 12297473
0.082563102 0.0047412058 -0.023665797 10525461
0.084299587 0.0059652952 -0.023859084 10653481
0.086036049 0.0071893698 -0.024052363 10786129
0.084998019 0.010198113 -0.026727624 10590842
0.086728297 0.011417825 -0.026920214 10459012
0.086368337 0.013969492 -0.028973278 10393487
-0.025093829 -0.090084419 0.0053029023 12368146
-0.020991286 -0.090927169 0.0076427795 12958217
-0.021552647 -0.087588146 0.0049087424 13288193
-0.019782064 -0.086340025 0.0047116634 13618182
-0.018011475 -0.085091889 0.0045145843 14537227
-0.016240893 -0.08384376 0.0043175053 15521798
-0.014470289 -0.082595617 0.0041204244 14929665
-0.015068935 -0.079282776 0.0013904497 14404097
-0.015679916 -0.075978726 -0.0013380684 14733569
-0.015707942 -0.073197372 -0.0034323819 15128604
-0.013954403 -0.071961261 -0.0036275648 15589175
-0.025367837 -0.059465602 -0.017738214 16115297
-0.023648418 -0.058253538 -0.017929599 16382348
-0.021928988 -0.057041466 -0.018120984 16711291
-0.020209569 -0.055829406 -0.018312369 16711275
-0.020908993 -0.052587602 -0.021031126 16711236
-0.019195758 -0.0513799 -0.021221822 16711198
-0.015051289 -0.052193202 -0.018886521 16711189
-0.013331869 -0.050981142 -0.019077906 16710156
-0.011612439 -0.049769074 -0.019269291 16709132
-0.012342878 -0.04654913 -0.0219846 16708876
-0.010629643 -0.045341432 -0.022175293 16708870
-0.0089164209 -0.044133738 -0.022365989 16708865
-0.0072032013 -0.042926043 -0.022556683 16708866
-0.0054899682 -0.041718345 -0.022747377 16708611
-0.0056373817 -0.039021149 -0.024828399 16708355
-0.0039288183 -0.037816741 -0.025018575 16708355
-0.0022202306 -0.036612313 -0.025208753 16710146
-0.0048856442 -0.031955384 -0.029806035 16577282
-0.0031879251 -0.030758617 -0.029995004 16510209
-0.0014902051 -0.029561853 -0.030183971 16509185
0.00020751497 -0.028365089 -0.03037294 16573953
-0.00061896536 -0.025212957 -0.033077471 16642561
0.0010725437 -0.024020569 -0.033265751 16707329
0.0027640657 -0.022828173 -0.033454027 16710657
0.0044555757 -0.021635786 -0.033642307 16711283
0.0061470978 -0.020443389 -0.033830583 16645861
0.0078386078 -0.019251 -0.034018863 16645822
0.0095301289 -0.018058605 -0.034207139 16645783
0.0092958957 -0.015422612 -0.036278505 16711251
0.010982772 -0.01423349 -0.036466263 16711184
0.012669636 -0.013044378 -0.036654025 16711211
0.014356488 -0.011855274 -0.036841784 16645703
0.016043365 -0.010666152 -0.037029546 16580173
0.017730229 -0.0094770389 -0.037217308 16449108
0.019417094 -0.0082879262 -0.037405066 16318016
0.023062266 -0.0085194604 -0.035713367 16317996
0.02475379 -0.0073270639 -0.035901647 16252472
0.026445311 -0.0061346684 -0.036089927 16449093
0.02813682 -0.0049422802 -0.036278203 16645685
0.029828344 -0.0037498849 -0.036466483 16644389
0.031519853 -0.0025574958 -0.036654759 16709165
0.035859592 -0.0032330411 -0.034341279 16444214
0.037557315 -0.0020362749 -0.034530248 16179543
0.041250568 -0.0022339164 -0.032843899 14531704
0.045619771 -0.0028886914 -0.030533697 12884028
0.049333163 -0.0030721417 -0.028849596 13083905
0.051046398 -0.0018644417 -0.02904029 13283851
0.052759618 -0.00065674912 -0.029230984 14276117
0.054472838 0.00055094343 -0.029421678 15268385
0.056186061 0.001758636 -0.029612372 15989806
0.057899281 0.0029663285 -0.029803066 16711210
0.059612501 0.0041740211 -0.029993759 16710695
0.059288338 0.0067466246 -0.03205511 16709968
0.060996927 0.0079510519 -0.032245286 16711034
0.059976637 0.010966558 -0.034928251 16710744
0.064414054 0.010359869 -0.032625638 15062071
0.068178609 0.010212484 -0.030947233 13411868
0.075386859 0.0078241769 -0.026156429 11902721
0.077112481 0.0090406071 -0.026348505 10459405
0.080908023 0.0089150779 -0.02467354 10524441
0.082638323 0.010134809 -0.024866134 10589777
0.084368594 0.011354525 -0.025058724 10393993
0.086098872 0.012574237 -0.025251318 10262669
0.085740611 0.015122792 -0.027308878 10262162
-0.025737917 -0.088901065 0.007010676 11972908
-0.021637628 -0.089739673 0.0093565341 13088025
-0.022196734 -0.086404793 0.006616516 12760838
-0.020426152 -0.085156672 0.006419437 12500236
-0.018655563 -0.083908536 0.006222358 13419282
-0.019239539 -0.080591083 0.0034850165 14403090
-0.01747516 -0.079347327 0.0032886285 14273041
-0.015710765 -0.078103565 0.0030922387 14206224
-0.016319493 -0.074803665 0.00035774335 14139407
-0.016345823 -0.072025418 -0.001741061 14141473
-0.02115255 -0.065158881 -0.0089123612 14864436
-0.023601597 -0.060359463 -0.013543751 15590471
-0.024273891 -0.057104383 -0.016271178 16120154
-0.022554461 -0.055892311 -0.016462563 16709980
-0.020835042 -0.054680251 -0.016653948 16709982
-0.019115612 -0.053468183 -0.016845332 16707895
-0.017396182 -0.052256111 -0.017036717 16706063
-0.01810576 -0.049027193 -0.019760069 16705803
-0.013957343 -0.049831986 -0.017419485 16705542
-0.012237913 -0.048619919 -0.01761087 16705542
-0.012966096 -0.045404114 -0.020332152 16705542
-0.011252865 -0.044196416 -0.020522846 16705795
-0.011384623 -0.041492492 -0.022609916 16706305
-0.0096760597 -0.040288083 -0.02280009 16706561
-0.0079674721 -0.039083656 -0.02299027 16707074
-0.0062589082 -0.037879243 -0.023180444 16707330
-0.0070350757 -0.03469738 -0.025896307 16707842
-0.0053326981 -0.033497334 -0.026085794 16706821
-0.0055032237 -0.030820733 -0.028168546 16509448
-0.0063088434 -0.02765963 -0.030881131 16377604
-0.0046173334 -0.026467241 -0.031069407 16376833
-0.0029258113 -0.025274847 -0.031257685 16444207
-0.0012342893 -0.02408245 -0.031445965 16576606
0.00045721978 -0.022890063 -0.031634241 16709484
0.0021487419 -0.021697666 -0.031822521 16711290
0.0038402518 -0.020505279 -0.032010797 16711286
0.0055317739 -0.019312883 -0.032199077 16638579
0.0053085363 -0.016673442 -0.034275964 16575071
0.0069954009 -0.015484329 -0.034463722 16642636
0.0086822659 -0.014295217 -0.034651484 16707882
0.010369143 -0.013106095 -0.034839246 16707848
0.012056006 -0.011916982 -0.035027005 16708374
0.013742859 -0.010727879 -0.035214763 16578084
0.015429735 -0.0095387567 -0.035402525 16507957
0.017116599 -0.0083496431 -0.035590287 16241478
0.018803464 -0.0071605304 -0.035778046 15978799
0.020490339 -0.0059714084 -0.035965808 15912728
0.022177191 -0.0047823042 -0.03615357 15850781
0.023864057 -0.0035931915 -0.036341328 16182051
0.027521495 -0.0038117741 -0.034646697 16577321
0.029213019 -0.0026193785 -0.034834974 16645168
0.030904528 -0.0014269894 -0.035023253 16710956
0.032596052 -0.0002345948 -0.03521153 16711208
0.036939736 -0.00090162415 -0.03289276 16709692
0.038637467 0.00029514957 -0.033081729 16708433
0.042333666 0.00010388193 -0.031391408 16707381
0.044036027 0.0013039227 -0.031580895 16706330
0.048415385 0.0006620374 -0.029266093 16708638
0.050123975 0.0018664647 -0.029456273 16711203
0.051832538 0.0030708734 -0.029646449 16711206
0.053541102 0.0042752819 -0.029836625 16711209
0.055249687 0.0054797092 -0.030026805 16711207
0.056958251 0.006684118 -0.030216977 16711205
0.058666814 0.0078885267 -0.030407153 16711243
0.057654988 0.010904267 -0.033096787 16711282
0.059357364 0.012104318 -0.033286273 16706119
0.061059717 0.013304349 -0.033475757 14732572
0.065501116 0.012706199 -0.031167861 12754208
0.069268636 0.012565208 -0.029485481 11572772
0.070981853 0.013772902 -0.029676175 10392888
0.078210361 0.011410341 -0.02487617 10392652
0.082008898 0.011291219 -0.023197241 10458731
0.083739176 0.012510935 -0.023389831 10262923
0.083387256 0.015059665 -0.025452398 10065806
0.082330458 0.018043701 -0.028137024 10131090
-0.026382005 -0.087717712 0.0087184496 10922054
-0.026938921 -0.08438693 0.0059723668 12432425
-0.022840822 -0.08522144 0.0083242897 12562956
-0.02107024 -0.083973318 0.0081272107 12693523
-0.019299651 -0.082725182 0.0079301316 13088282
-0.01988137 -0.079411879 0.0051868092 13483294
-0.01811699 -0.078168124 0.0049904212 13483554
-0.016352596 -0.076924354 0.0047940314 13549343
-0.016959066 -0.073628597 0.0020535551 13418269
-0.019360758 -0.068805844 -0.0025931373 13287463
-0.024167489 -0.061955079 -0.0097801993 13945393
-0.026618786 -0.057167284 -0.014421364 14672428
-0.024899367 -0.055955224 -0.014612749 15195688
-0.023179937 -0.054743156 -0.014804134 15719229
-0.023868641 -0.05150526 -0.017535547 15983186
-0.022155432 -0.050297577 -0.017726239 16247337
-0.020442197 -0.049089875 -0.017916935 16247297
-0.018728977 -0.047882184 -0.018107628 16247297
-0.017015757 -0.04667449 -0.018298322 16180993
-0.015302524 -0.045466788 -0.018489018 16180225
-0.013589315 -0.044259105 -0.018679712 16246017
-0.013714721 -0.041555006 -0.020771783 16377601
-0.012006149 -0.040350586 -0.020961961 16443393
-0.012761456 -0.037159752 -0.023685873 16574977
-0.011059078 -0.035959702 -0.023875359 16575489
-0.0093567139 -0.034759659 -0.024064846 16576257
-0.0095162559 -0.032079622 -0.026153121 16575489
-0.0078185238 -0.030882848 -0.02634209 16574727
-0.0086156866 -0.027721521 -0.029061345 16443406
-0.0069241654 -0.026529126 -0.029249625 16245256
-0.0052326554 -0.025336739 -0.029437901 16378626
-0.0035411334 -0.024144342 -0.029626181 16577118
-0.0018496113 -0.022951946 -0.029814459 16644283
-0.00015810225 -0.021759558 -0.030002737 16711383
-0.00036570011 -0.019113392 -0.032085657 16711412
0.0013211765 -0.017924272 -0.032273419 16711290
0.0030080406 -0.016735159 -0.032461181 16639233
0.0046949047 -0.015546044 -0.03264894 16571905
0.0063817692 -0.014356932 -0.032836702 16576257
0.0080686342 -0.013167819 -0.03302446 16641281
0.0097555108 -0.011978697 -0.033212222 16575745
0.011442374 -0.010789584 -0.033399984 16575745
0.013129227 -0.0096004801 -0.033587743 16575233
0.014816104 -0.008411359 -0.033775505 16569116
0.016502967 -0.0072222454 -0.033963263 16440376
0.018189831 -0.0060331328 -0.034151025 16311838
0.019876709 -0.0048440108 -0.034338787 16311044
0.02156356 -0.0036549065 -0.034526546 16244738
0.023250425 -0.0024657939 -0.034714308 16313601
0.0249373 -0.0012766719 -0.03490207 16377630
0.026624165 -8.7559223e-05 -0.035089828 16446011
0.028311031 0.0011015534 -0.03527759 16580139
0.031980727 0.00089590973 -0.033580024 16645659
0.03367224 0.0020882988 -0.0337683 16711202
0.03536376 0.0032806934 -0.03395658 16711210
0.037055269 0.0044730827 -0.034144856 16711214
0.04141533 0.0038233292 -0.031822179 16711219
0.043113049 0.0050200936 -0.032011148 16711218
0.046821501 0.0048417714 -0.030317891 16711218
0.051211011 0.0042127753 -0.027998496 16711211
0.05022623 0.0072418512 -0.030696865 16711205
0.051928632 0.0084419157 -0.030886356 16711204
0.056336723 0.00782602 -0.028569024 16578340
0.058045287 0.0090304287 -0.0287592 16509767
0.057035718 0.012042027 -0.031454809 16179562
0.056694783 0.014594199 -0.033522896 15849525
0.060440447 0.014442109 -0.031833783 13746177
0.062142849 0.015642174 -0.03202327 11638052
0.066588156 0.015052509 -0.029710084 11113543
0.068296716 0.016256919 -0.029900257 10589027
0.077582628 0.01256364 -0.023211766 10524031
0.084141016 0.010671035 -0.019027743 10459014
0.085877493 0.011895129 -0.019221026 10327949
0.084840029 0.014887057 -0.021913536 10196624
-0.025255511 -0.085286237 0.010229142 11773760
-0.02348491 -0.084038094 0.010032061 12300325
-0.021714324 -0.082789965 0.0098349843 12889883
-0.019943738 -0.081541829 0.0096379034 12758544
-0.018173153 -0.080293708 0.0094408244 12629777
-0.01875882 -0.076988921 0.0066922121 12762130
-0.016994426 -0.07574515 0.0064958222 12893467
-0.017598642 -0.072453536 0.0037493631 12627749
-0.019996386 -0.067638032 -0.00090779737 12432931
-0.02658269 -0.059269302 -0.010022864 13091873
-0.027244262 -0.056018129 -0.012762943 13814819
-0.025524843 -0.054806069 -0.012954328 14275622
-0.026205093 -0.051567949 -0.015692407 14736170
-0.024491861 -0.050360247 -0.015883103 15262253
-0.022778653 -0.049152561 -0.016073795 15852058
-0.021065418 -0.047944859 -0.016264491 15786504
-0.019352198 -0.046737168 -0.016455185 15786257
-0.017638978 -0.045529477 -0.016645879 15720731
-0.015925743 -0.044321775 -0.016836574 15720206
-0.016044827 -0.041617516 -0.018933648 15851010
-0.014336251 -0.040413097 -0.019123824 16048138
-0.012627676 -0.03920868 -0.019314002 16245267
-0.013380726 -0.036021993 -0.022043899 16442899
-0.011678348 -0.034821946 -0.022233386 16443924
-0.011831542 -0.032141726 -0.024326663 16443146
-0.010133835 -0.030944971 -0.024515629 16442625
-0.010922533 -0.027783412 -0.027241558 16508468
-0.0092310105 -0.026591014 -0.027429836 16312167
-0.0075394893 -0.025398619 -0.027618116 16180585
-0.007726789 -0.022742447 -0.029707596 16446316
-0.0041564573 -0.023013836 -0.027994672 16709283
-0.0043530599 -0.020364221 -0.030083116 16711385
-0.0026661963 -0.019175109 -0.030270876 16711399
-0.00097933179 -0.017985994 -0.030458637 16711414
0.00070754485 -0.016796874 -0.030646399 16710304
0.0023944089 -0.015607759 -0.030834159 16640330
0.004081273 -0.014418647 -0.031021919 16575013
0.0057681375 -0.013229534 -0.031209679 16575489
0.0074550021 -0.012040421 -0.03139744 16640769
0.0072165425 -0.0094203148 -0.033481229 16509697
0.0088987611 -0.0082344767 -0.033668473 16445244
0.010580968 -0.0070486469 -0.033855714 16572792
0.012263186 -0.0058628088 -0.034042958 16707463
0.013945406 -0.0046769707 -0.034230199 16711318
0.015627624 -0.0034911325 -0.034417443 16711307
0.017309843 -0.0023052944 -0.034604687 16711296
0.020949928 -0.0025275089 -0.032899525 16709480
0.022636794 -0.0013383962 -0.033087287 16445520
0.024323668 -0.00014927424 -0.033275049 16246583
0.026010534 0.0010398384 -0.033462808 16307230
0.027697397 0.0022289511 -0.03365057 16443672
0.029384265 0.0034180637 -0.033838328 16576530
0.031071128 0.0046071764 -0.03402609 16708118
0.03275799 0.0057962909 -0.034213848 16708890
0.036439944 0.0056035891 -0.032513347 16709928
0.038131468 0.0067959856 -0.032701626 16711221
0.039822977 0.0079883728 -0.032889903 16711228
0.04419319 0.0073515107 -0.030562626 16711236
0.047904585 0.0071795606 -0.028865404 16711236
0.04960696 0.0083796084 -0.029054891 16711237
0.051309362 0.0095796734 -0.02924438 16709420
0.053011715 0.010779705 -0.029433865 16510995
0.054714095 0.011979753 -0.029623352 16310831
0.056416448 0.013179785 -0.029812837 15653964
0.056077205 0.01572885 -0.031885404 15061546
0.057774924 0.016925614 -0.032074373 12825609
0.056738157 0.01991231 -0.03477269 10586675
0.061170366 0.019319147 -0.032452311 10718813
0.062868081 0.020515911 -0.03264128 10851697
0.0645658 0.021712676 -0.03283025 10655365
0.066263519 0.022909444 -0.033019215 10524299
0.085245818 0.013055685 -0.017546151 10459282
0.086982302 0.014279774 -0.017739434 10393489
-0.025899598 -0.084102884 0.011936916 10067543
-0.024128994 -0.08285474 0.011739835 11314751
-0.022358412 -0.081606612 0.011542758 12562211
-0.018246302 -0.082419679 0.013904495 12561927
-0.01881724 -0.079110354 0.011148598 12628228
-0.017046636 -0.077862211 0.010951517 12695042
-0.015276058 -0.076614082 0.010754438 12827671
-0.018238215 -0.071278475 0.005445173 12693293
-0.018259471 -0.068509556 0.0033329129 12495903
-0.02721042 -0.058115996 -0.0083584599 12825105
-0.027869739 -0.054868974 -0.011104515 13154587
-0.02615032 -0.05365691 -0.0112959 13549861
-0.02443089 -0.052444838 -0.011487285 13945367
-0.025115078 -0.049215235 -0.014230663 14209289
-0.023401869 -0.048007552 -0.014421355 14539020
-0.021688635 -0.04679985 -0.014612051 14865679
-0.019975414 -0.045592159 -0.014802745 15126818
-0.018262194 -0.044384465 -0.014993438 15325749
-0.016548961 -0.043176763 -0.015184134 15458332
-0.016666355 -0.040475614 -0.017285693 15654404
-0.014957776 -0.039271198 -0.01747587 15850516
-0.015702363 -0.036084276 -0.02021244 15916581
-0.013999997 -0.034884233 -0.020401925 15982886
-0.01414684 -0.032203842 -0.022500206 16245543
-0.012449121 -0.031007079 -0.022689175 16508180
-0.013229377 -0.027845304 -0.025421772 16508161
-0.011537855 -0.026652906 -0.025610052 16573792
-0.0098463325 -0.025460511 -0.02579833 16246464
-0.010027284 -0.022804163 -0.027892815 15854027
-0.0083404183 -0.021615051 -0.028080575 16117463
-0.0066535543 -0.020425938 -0.028268335 16317415
-0.0049666897 -0.019236825 -0.028456096 15924472
-0.0032798261 -0.018047713 -0.028643856 15531768
-0.0015929616 -0.016858598 -0.028831616 15399672
9.3915034e-05 -0.015669478 -0.029019378 15333317
0.0017807791 -0.014480364 -0.029207138 15989395
0.0034676432 -0.013291251 -0.029394899 16645706
0.0051545077 -0.012102138 -0.029582659 16645377
0.004922396 -0.0094818566 -0.03167145 16645377
0.006604603 -0.0082960259 -0.031858694 16578305
0.0082868207 -0.0071101878 -0.032045938 16577144
0.0099690277 -0.005924358 -0.032233179 16644336
0.0090678576 -0.0028478215 -0.034952316 16711410
0.010743866 -0.0016663615 -0.035138872 16121589
0.012419887 -0.00048489217 -0.035325423 15531769
0.014095895 0.00069656875 -0.035511974 16121597
0.015771916 0.001878038 -0.035698529 16711374
0.017447924 0.003059498 -0.035885081 16577440
0.019123932 0.004240959 -0.036071632 16443216
0.02079994 0.0054224189 -0.036258187 16376833
0.025108961 0.00474816 -0.033918362 16310789
0.026791191 0.0059340075 -0.03410561 16443913
0.028473398 0.0071198363 -0.034292851 16577290
0.030155616 0.0083056744 -0.034480095 16577035
0.033831235 0.0081128068 -0.03277459 16576801
0.035518087 0.009301912 -0.032962348 16445496
0.037204951 0.010491025 -0.03315011 16379975
0.040899176 0.010311274 -0.031446677 16313942
0.045273326 0.0096829254 -0.029114107 16182622
0.046971053 0.010879692 -0.029303076 16117606
0.050690092 0.010717431 -0.027602406 16118068
0.050366461 0.013273206 -0.02968101 15852802
0.054094825 0.013117511 -0.027981378 15587864
0.055797178 0.014317542 -0.028170863 14865966
0.055459626 0.016863501 -0.030247916 14142496
0.054431304 0.019850409 -0.032952901 12298258
0.056122836 0.021042814 -0.033141181 10453059
0.060552783 0.020453798 -0.030814823 10588532
0.062250502 0.021650562 -0.03100379 10721152
-0.022446224 -0.083737187 0.016013788 10329697
-0.020669421 -0.082484677 0.015816016 12297796
-0.018892644 -0.081232175 0.015618248 12430887
-0.017115841 -0.079979673 0.015420478 12627482
-0.017690724 -0.076678857 0.012659291 12693005
-0.015920145 -0.075430736 0.012462212 12824347
-0.016513707 -0.072142974 0.0097030196 12693545
-0.017119607 -0.068864025 0.0069452859 12627740
-0.023679266 -0.060516655 -0.0022128643 12562191
-0.028495211 -0.053719815 -0.0094460938 12562713
-0.026775792 -0.052507754 -0.0096374787 12825378
-0.025056362 -0.051295683 -0.0098288637 13155355
-0.025738299 -0.048070222 -0.012578215 13223188
-0.02402509 -0.046862535 -0.012768907 13288983
-0.022311855 -0.045654833 -0.012959603 13879066
-0.020598635 -0.044447143 -0.013150297 14535968
-0.018885415 -0.043239452 -0.013340991 14865447
-0.018996444 -0.040538117 -0.015447562 15258901
-0.01728788 -0.039333709 -0.015637737 15455747
-0.015579304 -0.038129292 -0.015827913 15653134
-0.016321637 -0.034946512 -0.018570462 15588377
-0.016462138 -0.032265957 -0.02067375 15523097
-0.014764419 -0.031069195 -0.020862719 16047640
-0.0130667 -0.02987243 -0.021051686 16573744
-0.013844701 -0.026714798 -0.023790265 16640840
-0.012153178 -0.0255224 -0.023978544 16705416
-0.010461656 -0.024330005 -0.024166822 16114633
-0.010640914 -0.021676768 -0.026265796 15591120
-0.00895405 -0.020487655 -0.026453556 15788504
-0.007267185 -0.019298542 -0.026641317 15984608
-0.0055803205 -0.01810943 -0.026829077 15197927
-0.0038934569 -0.016920317 -0.027016837 14409700
-0.0022065924 -0.015731202 -0.027204597 14146017
-0.0024184044 -0.013100913 -0.029299947 13952459
-0.00073618582 -0.011915075 -0.029487191 15335092
0.00094603328 -0.010729237 -0.029674433 16711322
0.0026282403 -0.0095434077 -0.029861676 16711295
0.0043104584 -0.0083575686 -0.030048918 16711270
0.0059926654 -0.0071717389 -0.03023616 16711245
0.0051061576 -0.0040906006 -0.032962665 16711329
0.0067821536 -0.0029091481 -0.033149213 16711413
0.0084581748 -0.0017276788 -0.033335768 16711403
0.010134185 -0.00054621883 -0.033522319 15518432
0.009864999 0.0020436291 -0.035611279 14407140
0.011536362 0.0032218145 -0.035797313 15524073
0.015162235 0.0029981807 -0.034081977 16711385
0.016838243 0.0041796407 -0.034268532 16709578
0.016550452 0.0067563727 -0.036355421 16707721
0.020190259 0.0065425616 -0.034641635 16439880
0.021866281 0.0077240309 -0.03482819 16246313
0.026179252 0.0070582945 -0.032483075 16377097
0.027861459 0.0082441233 -0.032670315 16508697
0.029543681 0.0094299614 -0.03285756 16443944
0.033217605 0.0092402026 -0.031147571 16442659
0.034904458 0.010429308 -0.031335331 16245021
0.038592331 0.010249384 -0.029626891 16113956
0.040283851 0.01144178 -0.029815171 15917355
0.044655748 0.010817574 -0.02747662 15719983
0.046353474 0.012014341 -0.027665589 15588147
0.048051193 0.013211105 -0.027854558 15521564
0.049748883 0.014407855 -0.028043523 15193094
0.053475551 0.014255272 -0.026339401 14930448
0.053144328 0.016801385 -0.028421462 14078235
0.052124493 0.019788546 -0.031133121 13284896
0.05381598 0.020980915 -0.031321395 11771173
0.055507511 0.022173321 -0.031509675 10328401
0.057199024 0.023365708 -0.031697951 10458494
-0.023092566 -0.082549691 0.017727543 9604740
-0.021315763 -0.081297182 0.017529771 10525798
-0.019538986 -0.080044687 0.017332003 11248712
-0.017762182 -0.07879217 0.017134232 11971632
-0.018334812 -0.075495504 0.014367064 12495641
-0.016564233 -0.074247383 0.014169986 13019679
-0.017155537 -0.07096377 0.011404811 12824102
-0.01775918 -0.067688964 0.008641094 12562202
-0.017781699 -0.064929537 0.0065203784 12562446
-0.024954896 -0.056109712 -0.0032972209 12562711
-0.025014622 -0.053376518 -0.0054137968 12694048
-0.025681838 -0.050146524 -0.0081704371 12891167
-0.026361518 -0.046925209 -0.010925775 13154079
-0.024648309 -0.045717526 -0.011116467 13416994
-0.022935074 -0.044509824 -0.011307163 13812261
-0.021221854 -0.043302134 -0.011497857 14207519
-0.021326557 -0.040600643 -0.013609427 14667801
-0.019617971 -0.039396215 -0.013799605 15128334
-0.017909408 -0.038191807 -0.013989781 15324675
-0.018643271 -0.035008796 -0.016739001 15521288
-0.016940907 -0.033808753 -0.016928488 15457294
-0.017079717 -0.03113131 -0.019036261 15457804
-0.015381997 -0.029934542 -0.01922523 15916554
-0.016151533 -0.026776679 -0.021970483 16377421
-0.014460023 -0.025584292 -0.022158759 16510864
-0.0127685 -0.024391897 -0.022347039 16711345
-0.011076978 -0.023199499 -0.022535317 16116690
-0.011254545 -0.02054937 -0.024638776 15523030
-0.0095676817 -0.019360257 -0.024826536 15524570
-0.0078808162 -0.018171145 -0.025014296 15591640
-0.0061939522 -0.016982032 -0.025202056 15196119
-0.0045070886 -0.015792917 -0.025389817 14728145
-0.0047125625 -0.013162462 -0.027490169 15000523
-0.0030303439 -0.011976624 -0.027677411 15324368
-0.0013481253 -0.010790786 -0.027864655 15990486
0.00033409381 -0.0096049476 -0.028051898 16711402
-0.00053157657 -0.0065148538 -0.030786447 16711422
0.0011444446 -0.0053333845 -0.030973002 16711372
0.0028204527 -0.0041519245 -0.031159554 16645786
0.0044964738 -0.0029704552 -0.031346109 16645834
0.0061724707 -0.0017890027 -0.031532656 16645883
0.0059142802 0.0008042939 -0.033627145 16711395
0.0075856559 0.0019824887 -0.033813179 15982284
0.0092570074 0.0031606657 -0.033999212 15323856
0.01092837 0.0043388512 -0.034185246 15655125
0.012599735 0.0055170376 -0.034371283 15990501
0.014271097 0.006695223 -0.03455732 15990005
0.01594246 0.0078734094 -0.034743354 16054978
0.017613823 0.0090515949 -0.034929387 16249488
0.021256598 0.0088441763 -0.033211634 16444237
0.022932606 0.010025637 -0.033398185 16378122
0.027249521 0.0093684122 -0.031047782 16377896
0.028931739 0.01055425 -0.031235026 16050246
0.032603972 0.0103676 -0.029520551 15785764
0.034290824 0.011556705 -0.029708309 15457795
0.035977688 0.012745818 -0.029896069 15129858
0.03966853 0.012572285 -0.028183665 14931713
0.041360054 0.013764681 -0.028371943 14733825
0.043051574 0.014957076 -0.028560223 14667521
0.047433615 0.014345757 -0.026217069 14601221
0.046434592 0.017341852 -0.028936777 14076426
0.050829031 0.01673927 -0.026595004 13551625
0.05252675 0.017936038 -0.026783973 12629001
0.051509172 0.020919051 -0.029501615 11706401
0.053200658 0.02211142 -0.029689889 11049273
0.05489219 0.023303825 -0.029878169 10458720
0.056583703 0.024496213 -0.030066447 10458504
-0.020185331 -0.078857183 0.019045757 10066781
-0.018408528 -0.077604681 0.018847987 11379527
-0.018978896 -0.07431215 0.016074838 12300594
-0.017208317 -0.073064029 0.015877761 13282859
-0.015437724 -0.071815893 0.01568068 12889124
-0.013667146 -0.070567764 0.015483601 12561689
-0.014268594 -0.067297041 0.012713822 12562702
-0.025584318 -0.054953299 -0.0016283281 12562710
-0.023854043 -0.053733584 -0.001820921 12562719
-0.026307315 -0.048997369 -0.0065120123 12628511
-0.026984736 -0.045780197 -0.0092733316 13087520
-0.025271527 -0.044572514 -0.0094640236 13546778
-0.023558293 -0.043364812 -0.0096547194 13679892
-0.021845073 -0.042157121 -0.0098454133 13878547
-0.020131852 -0.040949427 -0.010036107 14470161
-0.020239498 -0.038254313 -0.012151646 15061258
-0.018530935 -0.037049904 -0.012341822 15194627
-0.019262543 -0.033871036 -0.015097026 15391494
-0.019395018 -0.031193422 -0.017209802 15391753
-0.017697295 -0.029996658 -0.017398771 15457799
-0.015999578 -0.028799893 -0.01758774 15785734
-0.016766854 -0.025646176 -0.020338977 16180793
-0.015075346 -0.024453789 -0.020527253 16446572
-0.013383823 -0.023261391 -0.020715533 16711334
-0.011692301 -0.022068996 -0.020903811 16053216
-0.011868176 -0.019421974 -0.023011755 15460062
-0.010181312 -0.018232862 -0.023199515 15321820
-0.008494447 -0.017043749 -0.023387276 15263451
-0.0068075825 -0.015854636 -0.023575036 15194330
-0.007006709 -0.013224004 -0.025680391 15131355
-0.005324502 -0.012038173 -0.025867634 15920604
-0.0061692973 -0.0089391014 -0.028610241 16709089
-0.0044932887 -0.0077576423 -0.028796792 16711399
-0.0028172676 -0.0065761721 -0.028983347 16711410
-0.0011412594 -0.0053947121 -0.029169898 16711422
0.0005347617 -0.0042132428 -0.02935645 16711396
0.00029221363 -0.0016132221 -0.031456973 16645323
0.0019635763 -0.00043503661 -0.031643011 16645839
0.003634939 0.00074314978 -0.031829044 16645842
0.0053062905 0.0019213269 -0.032015078 16711385
0.0069776662 0.0030995207 -0.032201115 16446175
0.0086490177 0.0042776987 -0.032387149 16247256
0.01032038 0.0054558842 -0.032573182 15720658
0.011991743 0.0066340705 -0.032759219 15260633
0.013663108 0.007812256 -0.032945253 15324896
0.01533447 0.0089904424 -0.033131287 15394754
0.017005833 0.010168628 -0.033317324 16055972
0.018677184 0.011346805 -0.033503357 16708711
0.022322921 0.011145779 -0.031781632 16444203
0.023998944 0.012327247 -0.031968188 16247079
0.025674952 0.013508708 -0.032154739 15722275
0.030002007 0.01286437 -0.029799733 15195425
0.031684227 0.014050208 -0.029986976 14668575
0.035364058 0.013873214 -0.028269049 14209317
0.037050936 0.015062336 -0.028456811 14012203
0.040744733 0.014895186 -0.026740437 13812246
0.042436253 0.01608758 -0.026928717 13743617
0.044127762 0.01727997 -0.027116993 13744131
0.045819271 0.018472357 -0.027305271 12958213
0.050211448 0.017873922 -0.024957512 12167968
0.051909167 0.019070687 -0.025146481 11181372
0.053606886 0.020267451 -0.02533545 10197325
0.052585337 0.023241924 -0.028058384 10392927
0.054276869 0.02443433 -0.028246664 10589816
-0.020831672 -0.077669695 0.02075951 9473906
-0.019054865 -0.076417178 0.020561738 10066527
-0.019622983 -0.073128805 0.017782612 10921548
-0.015501289 -0.073912174 0.0201662 11776823
-0.016081812 -0.07063254 0.017388454 12168994
-0.011947704 -0.071407169 0.01977066 12626712
-0.012540629 -0.068136275 0.016994294 12496654
-0.030371636 -0.050272342 -0.0044708177 12431638
-0.026270086 -0.051069912 -0.0020849826 12497182
-0.026932787 -0.04784821 -0.0048535876 12628512
-0.027607955 -0.044635184 -0.0076208911 13087010
-0.025894746 -0.043427505 -0.0078115831 13480211
-0.024181511 -0.042219803 -0.0080022793 13679620
-0.022468291 -0.041012108 -0.0081929732 13877511
-0.020755071 -0.039804414 -0.0083836671 14272266
-0.020861024 -0.037112407 -0.010503693 14666502
-0.019152461 -0.035907999 -0.010693869 15062531
-0.019881815 -0.032733276 -0.01345505 15457028
-0.020012597 -0.030058773 -0.015572313 15457029
-0.018314876 -0.028862009 -0.015761282 15457795
-0.016617157 -0.027665241 -0.015950251 15654146
-0.017382178 -0.02451567 -0.018707467 15918629
-0.015690669 -0.023323283 -0.018895745 16313672
-0.013999146 -0.022130884 -0.019084025 16645787
-0.012307624 -0.02093849 -0.019272303 16380911
-0.010616104 -0.019746093 -0.019460583 16052455
-0.010794943 -0.017105464 -0.021572495 15985375
-0.0091080777 -0.015916351 -0.021760255 15984094
-0.0074212137 -0.014727239 -0.021948015 15919069
-0.0076186475 -0.012099717 -0.024057858 15919589
-0.0059364405 -0.010913886 -0.0242451 16314605
-0.006778982 -0.007818955 -0.026993681 16710898
-0.0051029734 -0.0066374941 -0.027180236 16711416
-0.0053298678 -0.0040307445 -0.029286802 16711419
-0.0036585047 -0.0028525582 -0.029472837 16711422
-0.0019871416 -0.0016743727 -0.029658873 16711421
-0.00031577796 -0.00049618632 -0.029844906 16645885
0.0013555847 0.00068199914 -0.030030942 16645843
0.0030269474 0.0018601855 -0.030216977 16645802
0.0046982989 0.0030383626 -0.030403011 16711374
0.0063696746 0.0042165569 -0.030589048 16578035
0.0080410261 0.0053947344 -0.030775081 16444897
0.0097123887 0.0065729199 -0.030961115 15983055
0.011383751 0.0077511063 -0.03114715 15520973
0.013055116 0.0089292917 -0.031333186 15652043
0.014726479 0.010107478 -0.031519219 15783105
0.016397841 0.011285664 -0.031705257 16252344
0.018069193 0.012463841 -0.03189129 16711298
0.021713236 0.012265926 -0.030165076 16311372
0.023389259 0.013447395 -0.030351628 15916582
0.025065267 0.014628856 -0.030538179 15323649
0.029390069 0.013988657 -0.0281772 14796574
0.031072287 0.015174495 -0.028364442 14206524
0.034750428 0.015000612 -0.026642028 13682249
0.036437307 0.016189734 -0.02682979 13286742
0.03812417 0.017378846 -0.027017551 12888875
0.041820928 0.017218087 -0.02529721 12628481
0.043512437 0.018410476 -0.025485486 12368129
0.045203947 0.019602863 -0.025673764 11840769
0.04959387 0.019008571 -0.023320023 11312184
0.051291589 0.020205339 -0.023508992 10852975
0.052989308 0.021402104 -0.023697961 10392698
0.051970012 0.024372431 -0.026426876 10393221
-0.01614763 -0.07272467 0.02187996 10265169
-0.0167259 -0.069449186 0.019096224 11514684
-0.01259405 -0.070219666 0.02148442 12757040
-0.010817261 -0.068967164 0.02128665 12496164
-0.024469497 -0.054650344 0.0042933477 12299042
-0.02511289 -0.051420763 0.0015168646 12495393
-0.025172187 -0.048700169 -0.00061265007 12693020
-0.025838844 -0.045486994 -0.0033865497 13086232
-0.024119411 -0.044274922 -0.0035779346 13481741
-0.022399981 -0.043062851 -0.0037693204 13679619
-0.02309151 -0.039867096 -0.006540529 13877254
-0.02137829 -0.038659401 -0.0067312238 14074632
-0.019665057 -0.037451703 -0.0069219186 14272261
-0.019773988 -0.034766093 -0.0090459082 14865154
-0.020501085 -0.031595517 -0.011813074 15521794
-0.020630175 -0.028924124 -0.013934826 15456515
-0.018932454 -0.02772736 -0.014123796 15457538
-0.01968902 -0.024577564 -0.016887685 15588354
-0.0179975 -0.023385167 -0.017075963 15720727
-0.016305991 -0.02219278 -0.017264241 16180780
-0.014614468 -0.021000382 -0.017452521 16641106
-0.012922945 -0.019807987 -0.017640799 16642936
-0.011231425 -0.01861559 -0.017829077 16707990
-0.011408573 -0.015978068 -0.019945474 16709813
-0.0097217085 -0.014788955 -0.020133235 16709294
-0.008034844 -0.013599843 -0.020320995 16709032
