# .PCD v0.7 - Point Cloud Data file format
VERSION 0.7
FIELDS x y z rgb
SIZE 4 4 4 4
TYPE F F F F
COUNT 1 1 1 1
WIDTH 900
HEIGHT 1
VIEWPOINT 0 0 0 1 0 0 0
POINTS 900
DATA ascii
0.064585008 -0.13115618 -0.08904507 1.3362205e-038
0.067046382 -0.13127626 -0.089121342 1.1979646e-038
0.069056436 -0.13079233 -0.088923767 5.6210481e-039
0.070782922 -0.1307188 -0.088685952 7.0018232e-039
0.07279297 -0.13082407 -0.088649683 5.5248854e-039
0.076349184 -0.13010652 -0.088997141 7.1927263e-039
0.078605957 -0.13070112 -0.08851482 8.1110448e-039
-0.045068856 -0.12905268 -0.088518381 7.4674915e-039
-0.042865533 -0.12899573 -0.088674448 8.386903e-039
-0.041375183 -0.12909248 -0.089053147 9.7702018e-039
-0.039777569 -0.12820956 -0.089877196 1.1522999e-038
0.057728771 -0.12906846 -0.089665927 6.538687e-039
0.059377939 -0.12898883 -0.089807436 4.697266e-039
0.060788568 -0.1295377 -0.089913093 9.8566395e-039
0.069350675 -0.12928663 -0.089295998 3.3132819e-039
0.071024358 -0.12899213 -0.088950485 4.8769853e-039
0.072832942 -0.12879406 -0.088762715 5.8904015e-039
0.074750818 -0.12866545 -0.088707857 6.165185e-039
0.07695169 -0.12878574 -0.088764489 6.0758802e-039
0.079388693 -0.1291156 -0.08884833 8.1027337e-039
0.080734141 -0.12896855 -0.088523284 8.8384953e-039
0.082670242 -0.12881741 -0.088976793 1.0131745e-038
0.084370546 -0.12824576 -0.088595688 8.7487996e-039
-0.046033278 -0.12753958 -0.088431902 6.8167159e-039
-0.044204004 -0.1270598 -0.08827652 5.2529635e-039
-0.042733066 -0.12694035 -0.088689327 8.6642172e-039
-0.041291576 -0.12713286 -0.089143381 9.6772845e-039
0.059297949 -0.12733361 -0.089808106 4.4188854e-039
0.06094712 -0.12725398 -0.089949608 9.9527924e-039
0.069577329 -0.12722373 -0.089396872 4.4152841e-039
0.071188323 -0.12724602 -0.089168608 5.3361558e-039
0.073137835 -0.12706459 -0.088955149 6.7172741e-039
0.075039223 -0.12684213 -0.088819481 6.9931393e-039
0.076858528 -0.12669738 -0.088806324 7.0849762e-039
0.078900263 -0.12678722 -0.08890228 7.8218238e-039
0.081193633 -0.12671225 -0.088780165 8.0980506e-039
0.082926199 -0.12654479 -0.088884763 8.8348996e-039
0.085246399 -0.12665939 -0.088950612 9.1136458e-039
0.087073088 -0.12685232 -0.088693254 9.116157e-039
0.088778958 -0.12702674 -0.088413119 1.0316511e-038
0.090392902 -0.12749453 -0.088912889 1.3825e-038
-0.042833917 -0.12519385 -0.088655986 6.4518906e-039
-0.041101173 -0.12511051 -0.089058109 9.492173e-039
0.059767682 -0.12565187 -0.089855947 4.4170959e-039
0.060840469 -0.12504703 -0.089950509 8.1041897e-039
0.069995895 -0.1243702 -0.089956321 2.7608593e-039
0.071297988 -0.12523976 -0.089523703 4.3227423e-039
0.073183492 -0.12511308 -0.089150719 5.979e-039
0.075019799 -0.12509355 -0.089010291 6.439611e-039
0.077137135 -0.12521023 -0.089057088 7.2682857e-039
0.078990214 -0.12499796 -0.088890269 7.4523154e-039
0.080962949 -0.12479287 -0.08890184 7.7292596e-039
0.082958624 -0.12498061 -0.088844165 8.0976848e-039
0.084984198 -0.12513904 -0.088873804 8.3739116e-039
0.08700151 -0.12474804 -0.089054495 8.8348883e-039
0.088800453 -0.12492289 -0.088910215 9.1129186e-039
0.090922698 -0.12485225 -0.089051761 9.3924061e-039
0.092777401 -0.1241699 -0.088516548 7.9197718e-039
0.094995156 -0.12453862 -0.088053107 7.4599427e-039
-0.042974986 -0.12297229 -0.088721432 4.0558902e-039
-0.0412209 -0.12304692 -0.088948078 8.3869072e-039
-0.039501023 -0.12252243 -0.089467354 5.6243244e-039
0.071063496 -0.12304258 -0.089729622 3.8632061e-039
0.072947167 -0.12308888 -0.089298926 4.9659383e-039
0.0750174 -0.12308306 -0.089063145 5.4261934e-039
0.07703843 -0.12297758 -0.089147992 6.1626682e-039
0.078908421 -0.12310818 -0.088936657 6.8073118e-039
0.080974758 -0.12298684 -0.088812679 7.3597639e-039
0.083159052 -0.12305658 -0.088870041 8.0047675e-039
0.084919326 -0.1228627 -0.088975459 8.0051263e-039
0.086908899 -0.12276968 -0.088853471 8.1888029e-039
0.089063138 -0.12323127 -0.088946559 8.7423382e-039
0.090936698 -0.12284231 -0.088896997 9.109683e-039
0.093000978 -0.12271446 -0.089099415 9.112564e-039
0.095130548 -0.12271759 -0.088774078 8.8410484e-039
0.096767589 -0.12260253 -0.088327125 9.3982243e-039
-0.044060282 -0.12175505 -0.08822798 3.2279288e-039
-0.042497981 -0.1213268 -0.088117331 3.3186699e-039
-0.040969197 -0.12092236 -0.089070991 7.005077e-039
0.071255259 -0.12089205 -0.089707434 4.1383497e-039
0.07310541 -0.12116408 -0.089191385 4.7815513e-039
0.075088158 -0.12096316 -0.089298435 4.965581e-039
0.077068701 -0.12100122 -0.089091666 5.333639e-039
0.079042256 -0.12097415 -0.088895097 5.8860869e-039
0.080805652 -0.12095438 -0.08872401 6.622566e-039
0.082941219 -0.12093666 -0.088995494 7.7267499e-039
0.084991656 -0.12107363 -0.088987976 8.1887987e-039
0.086898863 -0.12115401 -0.089055799 8.4650212e-039
0.088861182 -0.12095214 -0.088792443 8.3724697e-039
0.090997756 -0.12091332 -0.088989042 8.5572295e-039
0.093279354 -0.12123139 -0.089181505 8.927091e-039
0.094992451 -0.1207148 -0.088997327 8.9285371e-039
0.097320557 -0.12048572 -0.088445462 8.8392422e-039
-0.042678799 -0.11899507 -0.088862814 3.6863931e-039
-0.041354705 -0.11912628 -0.089050584 4.3317597e-039
0.071520001 -0.11883336 -0.089126468 4.0457939e-039
0.073055558 -0.11907169 -0.089151479 4.4134904e-039
0.075011022 -0.11902581 -0.089022227 4.5975201e-039
0.077111326 -0.11891251 -0.089047208 5.2418049e-039
0.078891076 -0.11904004 -0.088947237 5.4258319e-039
0.080764964 -0.11892694 -0.08883401 6.6225674e-039
0.083089195 -0.11912303 -0.088781275 7.3594051e-039
0.085107058 -0.11897539 -0.088812962 7.8203791e-039
0.086942255 -0.11919032 -0.088613629 8.0047675e-039
0.089221507 -0.11925486 -0.088945121 8.9252833e-039
0.090936914 -0.11896022 -0.088903606 9.0178349e-039
0.092868164 -0.11913085 -0.088800482 8.9249274e-039
0.094910353 -0.11909438 -0.088885039 9.0189027e-039
0.096860014 -0.11894801 -0.088899411 8.8381562e-039
0.099078804 -0.11902996 -0.088458523 9.0272502e-039
-0.044714559 -0.11685961 -0.089900084 2.5782504e-039
-0.041680884 -0.1170314 -0.08840245 3.0410181e-039
0.071096852 -0.11691722 -0.088995583 3.6777358e-039
0.072992511 -0.11709232 -0.088877343 4.2291062e-039
0.074943885 -0.11713233 -0.08883784 4.5975229e-039
0.076963298 -0.11705258 -0.088799872 5.1499708e-039
0.078884028 -0.11687969 -0.088846445 5.8860883e-039
0.080993593 -0.11698885 -0.08901599 6.7147616e-039
0.082870439 -0.11696637 -0.088834129 7.5434349e-039
0.085079081 -0.11727533 -0.088713214 8.0044116e-039
0.087174393 -0.11695292 -0.08895494 8.556505e-039
0.089295715 -0.11717864 -0.089242131 9.2933484e-039
0.091180101 -0.11711021 -0.08904314 9.4784557e-039
0.092854053 -0.11688461 -0.088777304 9.6628483e-039
0.095099352 -0.11723588 -0.08916118 9.4802479e-039
0.09702713 -0.11673155 -0.08879324 9.6664483e-039
0.098790787 -0.11706911 -0.088887125 1.0222165e-038
-0.044969797 -0.11460543 -0.089513026 2.2094707e-039
-0.043903213 -0.11510974 -0.089128383 2.3956795e-039
-0.04163472 -0.11475635 -0.088079296 1.7491988e-039
0.069116034 -0.11504298 -0.089520432 3.5855388e-039
0.071153983 -0.11490001 -0.089097843 3.9539612e-039
0.072996736 -0.11505399 -0.089056924 4.5056944e-039
0.074841827 -0.11521327 -0.089000851 5.3340048e-039
0.076904602 -0.11533255 -0.088682868 5.4254759e-039
0.079152621 -0.11504564 -0.089108005 6.898441e-039
0.08086554 -0.11498279 -0.088972129 7.0828337e-039
0.082790688 -0.11500534 -0.088864721 7.8203931e-039
0.084823631 -0.11500688 -0.088659935 8.3724851e-039
0.087354004 -0.1149502 -0.088836469 8.8331003e-039
0.088939361 -0.11488856 -0.089319095 9.6628539e-039
0.090895884 -0.11513813 -0.08922828 9.5706667e-039
0.093021058 -0.11493041 -0.089027889 1.0124897e-038
0.094803318 -0.11494669 -0.088730559 9.8483032e-039
0.097306602 -0.11525531 -0.089011788 9.5735366e-039
0.098792911 -0.11539298 -0.08821623 9.9405128e-039
0.10083693 -0.11502558 -0.088337436 1.0135773e-038
-0.046030819 -0.11229657 -0.089623615 2.3924201e-039
-0.044605445 -0.11304836 -0.089124605 3.0388825e-039
-0.043289892 -0.11286616 -0.089390106 1.8417742e-039
-0.041135535 -0.11321579 -0.089703746 3.0381608e-039
0.067647316 -0.1129351 -0.089956596 3.5862563e-039
0.069204591 -0.1130611 -0.089045823 3.2192828e-039
0.070835963 -0.1132318 -0.089163616 3.6795379e-039
0.073023789 -0.11345258 -0.088861279 3.5873381e-039
0.074985243 -0.11356874 -0.089234583 5.4265535e-039
0.077292532 -0.11339355 -0.089581504 5.6105987e-039
0.079328164 -0.11286379 -0.089165092 7.2730109e-039
0.081080653 -0.11308273 -0.088802129 7.0864532e-039
0.082792841 -0.11295269 -0.088591568 7.8247245e-039
0.084996834 -0.11337806 -0.088450991 8.0977045e-039
0.087350458 -0.11324644 -0.089625672 8.9271078e-039
0.088965289 -0.11317255 -0.088959679 9.1104215e-039
0.091039285 -0.1128476 -0.088997468 9.3877286e-039
0.093399003 -0.11312462 -0.089108579 9.9408996e-039
0.09480729 -0.11293962 -0.08876887 1.0033808e-038
0.097132146 -0.11303352 -0.088904835 1.2250473e-038
0.099272624 -0.11313131 -0.088338144 1.0685702e-038
-0.046469573 -0.11077555 -0.089531459 2.0240145e-039
-0.044199359 -0.1105027 -0.089975521 8.2006733e-039
-0.043057851 -0.11094248 -0.089251906 5.8000388e-039
-0.041729573 -0.11150749 -0.089451805 3.6820841e-039
0.070585087 -0.11198997 -0.089725606 4.7851722e-039
0.076602079 -0.11180701 -0.089951009 5.1525282e-039
0.079870999 -0.11129048 -0.089240193 6.8149236e-039
0.081313699 -0.11119513 -0.088397965 1.059781e-038
0.083228968 -0.11102938 -0.088266432 1.0784732e-038
0.088837162 -0.11107728 -0.089328602 7.9198236e-039
0.090460718 -0.11115801 -0.088538766 7.6407382e-039
0.092873655 -0.11092769 -0.089090399 8.2893278e-039
0.095114626 -0.11125664 -0.088888034 9.1118634e-039
0.09679085 -0.1112263 -0.088672899 9.204073e-039
0.098528668 -0.11118289 -0.088985384 9.3985606e-039
-0.046029232 -0.10896984 -0.089952812 1.133469e-038
-0.044308648 -0.10889351 -0.08905223 9.579338e-039
-0.043012865 -0.10885409 -0.089119844 8.1056288e-039
-0.041624531 -0.10895433 -0.089288197 6.2628106e-039
0.087646112 -0.10989517 -0.089882508 9.0319095e-039
0.08956895 -0.10965341 -0.088688657 8.9390202e-039
0.093123525 -0.10962252 -0.088634863 8.6617103e-039
0.095819145 -0.10892279 -0.088365801 8.5687986e-039
0.096824065 -0.10912077 -0.088430107 6.4414776e-039
-0.044679757 -0.10709975 -0.088953517 9.8580688e-039
-0.042951386 -0.10698833 -0.08922904 9.3956431e-039
-0.041523114 -0.10696128 -0.08926174 8.4747757e-039
0.057764966 -0.10630146 -0.088064149 2.2991328e-039
0.096081719 -0.1076479 -0.08882983 7.8348335e-039
-0.04490329 -0.10485836 -0.089101031 1.2348047e-038
-0.042760406 -0.10500397 -0.088787317 1.004209e-038
-0.041746527 -0.10518187 -0.089453466 9.1208541e-039
0.05767706 -0.10505366 -0.088980004 1.8407092e-039
0.058682714 -0.10426472 -0.088648774 2.3917138e-039
-0.044863019 -0.10273083 -0.088948615 1.3269999e-038
-0.042949397 -0.1030703 -0.088959642 1.1057314e-038
-0.041506153 -0.1028515 -0.089230187 9.9513196e-039
0.057509638 -0.10287351 -0.088439152 2.4831878e-039
0.058478076 -0.10305025 -0.088705957 2.2073225e-039
-0.04469968 -0.10097422 -0.089098476 1.3823168e-038
-0.042970683 -0.10103492 -0.08899425 1.1334243e-038
-0.041206963 -0.1007926 -0.089023523 9.8594757e-039
0.058859948 -0.10195111 -0.088761114 1.9314419e-039
-0.044816531 -0.099092595 -0.088875979 1.3638429e-038
-0.042826094 -0.099045165 -0.088995501 1.1242051e-038
-0.041234016 -0.098909207 -0.0891288 1.01357e-038
-0.04492107 -0.097296283 -0.089161053 1.4100475e-038
-0.043091882 -0.096913725 -0.088920027 1.1979261e-038
-0.040976219 -0.096878238 -0.088916406 1.0135705e-038
-0.039872736 -0.096527785 -0.089008808 9.7676458e-039
-0.044537317 -0.094982974 -0.089230739 1.4653655e-038
-0.042836681 -0.094969034 -0.088988252 1.1518638e-038
-0.04090574 -0.094948612 -0.089205451 1.0227907e-038
-0.039508674 -0.094567828 -0.089141592 9.3070362e-039
-0.044271339 -0.093054906 -0.089054391 1.4928791e-038
-0.042761512 -0.093114935 -0.08896257 1.1795583e-038
-0.04102923 -0.093011759 -0.088808894 1.0596332e-038
-0.039478999 -0.092955455 -0.088936768 9.8594841e-039
-0.042714261 -0.091179207 -0.088708535 1.4192661e-038
-0.040866937 -0.091050066 -0.089060716 1.1057308e-038
-0.03914078 -0.090761356 -0.089047104 1.0043159e-038
-0.037715457 -0.090642855 -0.089352623 9.8594855e-039
-0.040906783 -0.089090332 -0.089025304 1.2349118e-038
-0.039175443 -0.089103565 -0.089034595 1.0412302e-038
-0.037887216 -0.088432983 -0.089141399 9.5829057e-039
0.051483393 -0.088568836 -0.089968361 8.7553226e-039
-0.040387347 -0.087294653 -0.089025564 1.2071818e-038
-0.038870528 -0.086986564 -0.089056559 1.0873277e-038
-0.037658941 -0.086971216 -0.088989429 9.8594926e-039
0.051561799 -0.086939313 -0.089960977 8.4798259e-039
0.052644178 -0.086991809 -0.089868233 8.388359e-039
0.056801815 -0.087083347 -0.089777321 1.0322298e-038
-0.040144883 -0.085170887 -0.088671237 1.4191589e-038
-0.038962066 -0.085100196 -0.088972613 1.1058387e-038
-0.037056018 -0.084905177 -0.08906088 9.8598513e-039
0.049499951 -0.084560141 -0.088794544 8.6624151e-039
0.051172763 -0.084736198 -0.088738859 9.3999956e-039
0.053118225 -0.084655546 -0.089826658 9.8631331e-039
0.054845542 -0.084775791 -0.089927986 9.9553147e-039
0.057295881 -0.084975019 -0.08964707 9.6783733e-039
0.059046827 -0.084631786 -0.089455068 9.0337438e-039
0.060490992 -0.085078441 -0.089577466 7.468223e-039
-0.038774893 -0.083069108 -0.089047335 1.2348762e-038
-0.036870997 -0.083006807 -0.088878088 9.9516896e-039
-0.035672549 -0.082779206 -0.088755526 9.5832714e-039
0.048746925 -0.082700774 -0.089574687 8.940074e-039
0.051191602 -0.08283712 -0.089047261 1.0045711e-038
0.053128704 -0.082985707 -0.089422621 9.7698501e-039
0.055176772 -0.082574196 -0.089417405 8.6649529e-039
0.056916934 -0.082773127 -0.089187346 8.57313e-039
0.058785535 -0.08313641 -0.089007124 8.4813001e-039
-0.038591169 -0.081078276 -0.088762283 1.2164364e-038
-0.036963981 -0.081138924 -0.089065857 1.0412306e-038
-0.035394318 -0.081020474 -0.089046083 9.5836329e-039
0.046961915 -0.080633059 -0.088796154 8.4794616e-039
0.048955798 -0.080963373 -0.089186035 9.8623946e-039
0.05109591 -0.081098318 -0.089020938 9.8627604e-039
0.053061608 -0.08079081 -0.088916905 9.309602e-039
0.054854378 -0.080951802 -0.088826768 8.8497085e-039
0.056961685 -0.081303038 -0.088766165 8.3901765e-039
-0.037122604 -0.079437174 -0.088689722 1.2072532e-038
-0.035135031 -0.079167716 -0.089147672 9.9516952e-039
0.044869486 -0.078470998 -0.088340163 8.201423e-039
0.047029905 -0.078876875 -0.088882886 8.9400838e-039
0.049004953 -0.079106838 -0.088881575 9.9542414e-039
0.051040728 -0.079132378 -0.088838741 9.5865448e-039
0.05315261 -0.079249918 -0.089088507 9.6790992e-039
0.0547783 -0.079506591 -0.088556625 9.7713018e-039
-0.036260232 -0.077542245 -0.088924438 1.2718622e-038
-0.034808442 -0.077105135 -0.089132279 1.0412669e-038
-0.033919606 -0.076683484 -0.088175088 1.0319755e-038
0.043415099 -0.076507583 -0.089015886 9.307388e-039
0.045319494 -0.076744273 -0.088468604 9.8609471e-039
0.047061205 -0.077084072 -0.088808022 1.0691787e-038
0.04913193 -0.077046134 -0.088849798 1.1521563e-038
0.051192939 -0.076986946 -0.089403868 1.1798511e-038
0.052773528 -0.077136502 -0.088907897 1.1153152e-038
0.054232936 -0.077830099 -0.088255942 1.1244984e-038
-0.035393804 -0.075885959 -0.088771313 1.2901578e-038
-0.033230599 -0.075032234 -0.088701084 1.0597419e-038
-0.031816531 -0.07471934 -0.088970274 1.0320119e-038
0.043247741 -0.075268924 -0.088680804 8.7549345e-039
0.044882257 -0.075102419 -0.08885552 1.0875091e-038
0.046703789 -0.075178713 -0.089060649 1.271974e-038
0.049138848 -0.074820764 -0.089188918 1.2075824e-038
0.050926935 -0.075056031 -0.088743776 1.1337188e-038
0.0532653 -0.075261772 -0.088651761 9.3092489e-039
0.054389097 -0.075087905 -0.08837834 8.5723985e-039
-0.0342016 -0.073246412 -0.089690112 1.3085618e-038
-0.032818735 -0.072930641 -0.088888705 1.0875077e-038
-0.03125855 -0.072904795 -0.089357227 1.0320836e-038
0.040784325 -0.072964691 -0.088290863 8.3865303e-039
0.043065574 -0.072626755 -0.088612519 1.0507391e-038
0.045278843 -0.072817892 -0.0891058 1.3456947e-038
0.04673519 -0.07332512 -0.089147918 1.4840966e-038
0.048947863 -0.073270142 -0.08857289 1.1430097e-038
0.050942034 -0.073028967 -0.088200673 7.927755e-039
0.052255295 -0.073532946 -0.088371173 8.203616e-039
-0.032102998 -0.0717225 -0.08969415 1.1335334e-038
-0.0306633 -0.071042225 -0.088998675 1.0229358e-038
-0.029084634 -0.070997842 -0.088684097 9.7673067e-039
0.038935836 -0.070663415 -0.088263527 8.2014482e-039
0.041222867 -0.071050741 -0.088785648 8.3865303e-039
0.043206975 -0.070583731 -0.088345557 1.2075104e-038
0.044583056 -0.071491465 -0.089038715 1.4470392e-038
-0.028788134 -0.069373325 -0.0887786 9.9524141e-039
-0.027339766 -0.069034323 -0.089252383 9.4914429e-039
0.039066397 -0.068757132 -0.088484339 7.280917e-039
0.040941507 -0.069559738 -0.089409664 1.1889234e-038
0.043073874 -0.069916561 -0.089124113 1.5022502e-038
0.047511011 -0.069237441 -0.088194162 8.6635151e-039
-0.028112687 -0.067608178 -0.088306017 9.6751083e-039
-0.026880924 -0.067204155 -0.089123443 9.3999633e-039
-0.025768455 -0.067189634 -0.089888006 9.5829183e-039
0.036922719 -0.066422135 -0.089249574 8.5720005e-039
0.038471427 -0.067567259 -0.088510096 6.0827368e-039
-0.026900152 -0.065472156 -0.089156568 9.307409e-039
-0.025145754 -0.065751106 -0.089430302 9.399599e-039
0.035924159 -0.064521588 -0.089761227 7.8326657e-039
0.036455147 -0.065150894 -0.088515282 7.0046959e-039
0.041702159 -0.065889724 -0.088187486 1.0045358e-038
-0.022267945 -0.063880704 -0.089177795 1.041375e-038
-0.021513976 -0.063066177 -0.089674503 1.0320838e-038
0.035037197 -0.063331842 -0.089026868 7.5582158e-039
-0.020227823 -0.061707586 -0.088072479 9.5847105e-039
-0.019382507 -0.061372198 -0.088679388 9.7691018e-039
-0.017526524 -0.060686715 -0.088796906 9.5847175e-039
0.031323865 -0.06062901 -0.088525787 1.00446e-038
0.033641912 -0.060948826 -0.089072108 9.4918087e-039
0.02920093 -0.059172776 -0.089177601 1.0504502e-038
0.032497302 -0.059152327 -0.088731684 1.1520475e-038
0.027389277 -0.056283362 -0.089578554 1.0505951e-038
0.028632877 -0.056885835 -0.089417338 1.0967297e-038
0.030746846 -0.057223044 -0.08910618 1.2351311e-038
0.027046286 -0.054626103 -0.088830352 1.3640976e-038
0.028826928 -0.055028856 -0.089437962 1.1245007e-038
0.030625321 -0.05543837 -0.088806778 1.0231216e-038
0.018157791 -0.05227619 -0.089751981 1.0598885e-038
0.025912035 -0.052063018 -0.08899568 1.1429031e-038
0.026773935 -0.052987237 -0.089232244 1.1891441e-038
0.029640343 -0.053883698 -0.088520154 9.7705914e-039
0.02521576 -0.051637486 -0.089729056 1.1521952e-038
0.026668128 -0.051275749 -0.088436052 1.0232646e-038
0.036774259 -0.18262717 -0.086857677 1.5576734e-038
0.035519537 -0.1808486 -0.08682321 1.5483804e-038
0.036155879 -0.18171045 -0.087928504 1.4930988e-038
0.034450918 -0.17932674 -0.086985819 1.4654408e-038
0.037502743 -0.178389 -0.087275825 1.5853669e-038
0.038549345 -0.17955731 -0.087076001 1.5761833e-038
0.034496997 -0.17708656 -0.086738035 1.511467e-038
0.036716428 -0.1775806 -0.087815136 1.5485241e-038
0.038893923 -0.17675224 -0.086333722 1.6684507e-038
0.041597921 -0.1767423 -0.08604642 1.66845e-038
0.042000242 -0.17603539 -0.087957665 1.5945503e-038
0.04419196 -0.17624015 -0.086703688 1.6593046e-038
0.028424188 -0.17401302 -0.087027013 1.4287767e-038
0.033617705 -0.17465782 -0.087391987 1.3360059e-038
0.034734309 -0.17508054 -0.087301783 1.4560749e-038
0.03696556 -0.17525387 -0.087698534 1.5575997e-038
0.038139455 -0.17448887 -0.087114468 1.6130976e-038
0.041181434 -0.17516738 -0.087585181 1.6407558e-038
0.043298729 -0.17490911 -0.087388478 1.6224604e-038
0.044427555 -0.17493547 -0.086310133 1.6500481e-038
0.027544847 -0.17341563 -0.087573498 1.2531736e-038
0.028032828 -0.17264207 -0.087528042 1.3549483e-038
0.031090844 -0.17202957 -0.08765284 1.2529902e-038
0.033026144 -0.17320189 -0.087125205 1.3635911e-038
0.034921333 -0.1739707 -0.087756731 1.31807e-038
0.036267899 -0.17386726 -0.087095879 1.5024613e-038
0.039257195 -0.17266154 -0.086867884 1.6037696e-038
0.04090862 -0.17315292 -0.086922973 1.6039138e-038
0.043059755 -0.17295039 -0.086949393 1.6039133e-038
0.045325365 -0.17297651 -0.086312808 1.6500469e-038
0.027274435 -0.17086902 -0.086979687 1.2253688e-038
0.028804872 -0.1708528 -0.087235026 1.2901225e-038
0.031148896 -0.17149118 -0.087034456 1.2897984e-038
0.032374721 -0.17198576 -0.08688321 1.4189424e-038
0.03498359 -0.170966 -0.087716989 1.4003613e-038
0.036853362 -0.17158562 -0.087735929 1.3548027e-038
0.038201686 -0.17148329 -0.087069415 1.5576331e-038
0.040722601 -0.17120755 -0.087290734 1.5391588e-038
0.043007754 -0.17079 -0.087069497 1.3639892e-038
0.044365015 -0.17123634 -0.086543739 1.4932427e-038
0.025684807 -0.1686646 -0.087290525 1.2254428e-038
0.026849778 -0.16892958 -0.086982645 1.2345542e-038
0.029016493 -0.16910985 -0.087256074 1.3086338e-038
0.030577868 -0.16860928 -0.086650267 1.2532447e-038
0.037720978 -0.16801094 -0.087910384 1.372704e-038
0.039191283 -0.16877773 -0.087027989 1.3454403e-038
0.041001897 -0.16916472 -0.08724162 1.4191237e-038
0.042623706 -0.16903885 -0.086943381 1.3729177e-038
0.04471314 -0.16828664 -0.086542413 1.4655127e-038
0.023321897 -0.16661581 -0.08691363 1.1051544e-038
0.025397746 -0.1669488 -0.087356284 1.2066776e-038
0.026748518 -0.16735938 -0.086924657 1.2068219e-038
0.02945948 -0.16683912 -0.087431654 1.1609053e-038
0.03087466 -0.1672226 -0.08725331 1.244061e-038
0.032679737 -0.16687879 -0.087012574 1.3547323e-038
0.038726922 -0.16693844 -0.08726915 1.2528116e-038
0.04103886 -0.16704282 -0.087298401 1.2990531e-038
0.04265897 -0.16686687 -0.086772606 1.3730277e-038
0.016030543 -0.16401559 -0.086494185 1.1794892e-038
0.022861134 -0.16477837 -0.086962566 1.105299e-038
0.024751471 -0.16507435 -0.087097012 1.1976022e-038
0.029371357 -0.16504346 -0.087267786 1.2994494e-038
0.03125117 -0.16524562 -0.086975783 1.2717906e-038
0.032955367 -0.16494049 -0.087401487 1.2257295e-038
0.037585713 -0.16464266 -0.08710479 1.3544795e-038
0.039166596 -0.16503848 -0.087080255 1.2528833e-038
0.041148718 -0.16496809 -0.087096415 1.1791269e-038
0.042458996 -0.16478136 -0.086678267 1.1791279e-038
0.013100002 -0.16266982 -0.086642087 8.9350083e-039
0.014591686 -0.16321072 -0.08681149 9.5789344e-039
0.019130502 -0.16295066 -0.086935014 1.0593811e-038
0.021306416 -0.16290626 -0.086612023 1.2067867e-038
0.022649994 -0.1631451 -0.087084755 1.0960071e-038
0.024599548 -0.16304229 -0.08721064 1.0683833e-038
0.02731828 -0.16259962 -0.087180763 1.0958619e-038
0.02947861 -0.16392043 -0.087464482 1.1144091e-038
0.031486824 -0.16300678 -0.08743339 1.2072542e-038
0.033345349 -0.16289696 -0.086824082 1.1797026e-038
0.03471297 -0.16335635 -0.087550551 1.2163662e-038
0.037158825 -0.1625568 -0.086766601 1.1330672e-038
0.039444651 -0.1626198 -0.087309763 1.0592722e-038
0.040669363 -0.16315939 -0.08689937 1.1238096e-038
0.013102214 -0.16072251 -0.0870286 8.011257e-039
0.015040301 -0.16095452 -0.087227598 8.1941923e-039
0.017216083 -0.16097575 -0.086913757 8.102005e-039
0.019329011 -0.16094968 -0.086732887 9.2072792e-039
0.021285994 -0.16147138 -0.087331258 1.0037029e-038
0.022975488 -0.16067277 -0.087311991 1.0129217e-038
0.025270572 -0.16106264 -0.086942822 1.0588766e-038
0.026894368 -0.16084535 -0.087048039 9.8511955e-039
0.028391935 -0.16067451 -0.087307848 1.0129598e-038
0.030968599 -0.16045702 -0.087982431 1.1144103e-038
0.035688408 -0.16038631 -0.087433197 1.0681686e-038
0.037068516 -0.1608492 -0.086886466 9.4842234e-039
0.038812738 -0.16136658 -0.087110318 9.2097903e-039
0.040512986 -0.1611094 -0.08635211 8.8399386e-039
0.0091378698 -0.15899479 -0.086964361 6.9085472e-039
0.011185642 -0.15896559 -0.086879894 7.090779e-039
0.013071383 -0.15888764 -0.087034561 7.1822432e-039
0.014911355 -0.15885572 -0.087208606 7.364824e-039
0.017062418 -0.15868482 -0.087192312 8.3796891e-039
0.01898724 -0.15891916 -0.087000579 8.7473815e-039
0.021094454 -0.15887477 -0.087090731 9.3909404e-039
0.022915879 -0.15932682 -0.087001905 9.8519115e-039
0.024790263 -0.15976369 -0.087033495 8.6515915e-039
0.027253896 -0.15975447 -0.086883672 8.284604e-039
0.028889209 -0.15839796 -0.087990299 8.3746417e-039
0.030750625 -0.15852985 -0.087384209 9.6668196e-039
0.032837961 -0.1588937 -0.087098852 1.022214e-038
0.03502607 -0.15896663 -0.087179467 1.0774243e-038
0.03698384 -0.15921228 -0.087023109 9.6693476e-039
0.038974915 -0.15909562 -0.08757817 8.6537453e-039
-0.066690542 -0.15636313 -0.086442761 1.0876178e-038
-0.065523274 -0.15666215 -0.086543128 1.0322665e-038
-0.063120075 -0.15662819 -0.086337358 1.1054455e-038
-0.061031695 -0.15647969 -0.086566001 9.3956333e-039
-0.059157059 -0.1565681 -0.086209461 8.4711561e-039
-0.056615289 -0.1561604 -0.086384907 8.8403002e-039
-0.023543313 -0.15702476 -0.086563259 8.5753006e-039
-0.021739256 -0.1560778 -0.086141534 8.5720454e-039
-0.015237058 -0.15652645 -0.08730039 1.4656231e-038
-0.013010556 -0.15609203 -0.087174937 1.5669985e-038
-0.010403654 -0.15646641 -0.086276799 1.539376e-038
-0.0083207004 -0.15602574 -0.087029345 1.2443526e-038
-0.0075554997 -0.1563618 -0.08633928 1.2443526e-038
-0.0054909084 -0.15624493 -0.086734071 1.1430812e-038
-0.0030092995 -0.15640879 -0.086922377 6.5430087e-039
-0.0012529083 -0.15613404 -0.086094812 7.7382966e-039
0.00076824799 -0.15691127 -0.087654293 8.8359645e-039
0.0032153055 -0.15690325 -0.087928146 8.3728536e-039
0.0051332242 -0.15648213 -0.086789221 6.5365417e-039
0.0076652095 -0.15727288 -0.087133236 6.9902765e-039
0.0092808306 -0.15762365 -0.086233564 5.1579358e-039
0.010931978 -0.15750785 -0.086775675 6.2599337e-039
0.012754223 -0.15693769 -0.087132625 6.5361689e-039
0.0150155 -0.15725791 -0.08701095 5.893319e-039
0.0170621 -0.15702489 -0.087183505 6.0766299e-039
0.018957989 -0.15711991 -0.08687982 6.997133e-039
0.02067077 -0.15705858 -0.087063521 8.1945566e-039
0.022241198 -0.15765998 -0.087215059 8.8349136e-039
0.033193242 -0.1572112 -0.087405294 9.296235e-039
0.034696288 -0.15736794 -0.086876616 1.0034878e-038
0.036719657 -0.15748411 -0.086715713 1.0312906e-038
-0.072004415 -0.15466854 -0.086158805 1.1334267e-038
-0.069347873 -0.15518454 -0.086177275 8.9342614e-039
-0.067235239 -0.15506668 -0.08666037 1.0503797e-038
-0.064891122 -0.15526275 -0.087008238 1.0869686e-038
-0.062883019 -0.15497588 -0.086650871 8.1934804e-039
-0.060816642 -0.15475881 -0.086688422 6.9023815e-039
-0.059186578 -0.15483677 -0.087078325 6.7187189e-039
-0.056901306 -0.15482819 -0.086775802 6.9938596e-039
-0.054886185 -0.15494239 -0.086762704 7.9150886e-039
-0.053236037 -0.15472913 -0.086567603 7.91509e-039
-0.051155996 -0.15443414 -0.086804926 7.7314106e-039
-0.049024925 -0.15442368 -0.086903237 7.5466606e-039
-0.047627497 -0.15427823 -0.087320298 1.0771703e-038
-0.044683553 -0.15454999 -0.086959243 9.299821e-039
-0.042573661 -0.15442345 -0.086770236 8.9339167e-039
-0.040861979 -0.15402007 -0.08648555 8.4754371e-039
-0.024406556 -0.15559134 -0.087032765 1.0048267e-038
-0.022659643 -0.15492518 -0.087238297 8.9397363e-039
-0.020836685 -0.15466134 -0.08729931 7.6511695e-039
-0.019080628 -0.15471774 -0.087133862 6.7302852e-039
-0.01688705 -0.1548221 -0.086888641 1.0969465e-038
-0.015077274 -0.15461041 -0.086991474 1.235167e-038
-0.012857745 -0.15468249 -0.086951181 1.3365454e-038
-0.011144255 -0.15506676 -0.086786032 1.4287412e-038
-0.0091657722 -0.15515445 -0.086951666 1.4655833e-038
-0.0072162924 -0.15503561 -0.086883977 1.3548408e-038
-0.0052699833 -0.15475491 -0.086710989 1.2351301e-038
-0.0032725297 -0.1552735 -0.086039573 1.013751e-038
-0.00097446609 -0.15541467 -0.087407246 6.1753037e-039
0.00083956402 -0.15513951 -0.087056294 7.9259333e-039
0.0027252315 -0.15508975 -0.08620254 5.9909293e-039
0.0050182254 -0.1551984 -0.086753637 6.1749758e-039
0.0069304705 -0.15519719 -0.087087058 6.8214046e-039
0.0094221337 -0.1547638 -0.087531589 6.7277656e-039
0.010950228 -0.15514085 -0.086825624 6.7259846e-039
0.012764724 -0.15533002 -0.087312303 6.8138558e-039
0.014792234 -0.15555833 -0.087304555 5.4319864e-039
0.017144579 -0.15525827 -0.087138548 4.0530344e-039
0.0190829 -0.15537548 -0.087170511 5.2483196e-039
0.020936403 -0.15480068 -0.087069966 4.79094e-039
0.023130117 -0.15429002 -0.087447673 3.0360098e-039
0.02454013 -0.15422073 -0.08694955 2.2094931e-039
0.026438605 -0.15434486 -0.086357459 3.5927779e-039
0.035337154 -0.15487733 -0.087663382 9.573538e-039
-0.074165724 -0.15337434 -0.086307704 1.0597378e-038
-0.072515547 -0.15366913 -0.086527951 1.0598123e-038
-0.069997467 -0.15377957 -0.08671777 7.0878699e-039
-0.066767365 -0.1536326 -0.086108707 8.934267e-039
-0.065099873 -0.15394405 -0.086324625 9.4809822e-039
-0.060907304 -0.15335459 -0.08646208 6.6265148e-039
-0.058706611 -0.15298365 -0.086629093 7.6377857e-039
-0.056764901 -0.15344845 -0.086764537 6.9924261e-039
-0.054861166 -0.15321083 -0.087052219 6.8083978e-039
-0.053084794 -0.15288261 -0.086886257 6.9002305e-039
-0.050875053 -0.15291131 -0.086954527 7.0846147e-039
-0.048964247 -0.15297088 -0.086910293 7.544867e-039
-0.046938609 -0.15301582 -0.086805619 7.7299757e-039
-0.045083962 -0.15263936 -0.08693473 7.73034e-039
-0.043085754 -0.15288556 -0.08713226 8.3774989e-039
-0.040829152 -0.15283783 -0.086777985 9.7597103e-039
-0.038698711 -0.15286097 -0.086747192 7.916532e-039
-0.0248289 -0.15297301 -0.087163277 1.3547723e-038
-0.022933604 -0.15294646 -0.087120071 1.1979294e-038
-0.020843297 -0.15328503 -0.086939834 7.2816303e-039
-0.019011434 -0.15338917 -0.086808182 9.2181084e-039
-0.017114211 -0.15349194 -0.086809203 9.9563881e-039
-0.014961114 -0.15356188 -0.086874917 1.1889961e-038
-0.012875346 -0.15366188 -0.087209843 1.2812637e-038
-0.011044125 -0.153539 -0.086789459 1.3272536e-038
-0.0087253116 -0.15369943 -0.087142915 1.3917897e-038
-0.0068218224 -0.1536786 -0.086786985 1.3088514e-038
-0.0050009638 -0.15374912 -0.086919248 1.1705563e-038
-0.0034505893 -0.15290627 -0.0872254 1.1981392e-038
0.0020297486 -0.15357888 -0.087172985 2.4943239e-039
0.021345159 -0.15369859 -0.086736083 2.124475e-039
0.023081688 -0.15310565 -0.086981677 3.3183294e-039
0.024575876 -0.15278274 -0.08697205 3.4105349e-039
0.027068978 -0.15234147 -0.086786881 1.9379215e-039
0.028774362 -0.152059 -0.086763382 3.706e-040
-0.070703909 -0.15049778 -0.086144365 8.5575812e-039
-0.064985715 -0.15073751 -0.086233556 8.7416109e-039
-0.06291493 -0.15055801 -0.086070701 9.1096662e-039
-0.06111858 -0.15070674 -0.086311534 8.8338121e-039
-0.059315749 -0.15096051 -0.086248115 8.6504985e-039
-0.056869701 -0.15064496 -0.086812899 8.7426941e-039
-0.054931607 -0.15063505 -0.086333856 8.4661072e-039
-0.052898213 -0.15083991 -0.08687748 7.6374312e-039
-0.050832272 -0.15106754 -0.086782962 6.992782e-039
-0.04884528 -0.15132272 -0.086859122 6.8080306e-039
-0.046782713 -0.15106495 -0.086901516 6.8083936e-039
-0.045069672 -0.15092991 -0.086801089 7.0846189e-039
-0.042987436 -0.15083505 -0.086827964 7.0846161e-039
-0.041138113 -0.15074319 -0.086641431 7.2693689e-039
-0.039005075 -0.15120512 -0.086630389 7.9154656e-039
-0.036945079 -0.15034607 -0.086921267 6.6294057e-039
-0.033158153 -0.15058297 -0.087206393 7.2816849e-039
-0.028405186 -0.15109283 -0.08773455 7.2808904e-039
-0.026997009 -0.15115693 -0.086693421 9.2130596e-039
-0.024923725 -0.15104073 -0.087102883 1.2348782e-038
-0.02275368 -0.1509085 -0.087006912 1.1242794e-038
-0.021205667 -0.15105557 -0.086758681 8.2900046e-039
-0.019316807 -0.15070947 -0.086867154 2.757576e-039
0.023900665 -0.15180744 -0.086544469 4.5125762e-039
0.025083728 -0.15143371 -0.087310351 3.7786027e-039
0.027121309 -0.1511189 -0.087191395 2.8580855e-039
0.029297866 -0.15108414 -0.087035187 2.3988941e-039
0.030871106 -0.15081242 -0.086651541 4.7016338e-039
0.032145575 -0.15014389 -0.08620964 1.2536396e-038
-0.070489481 -0.14936851 -0.086095825 8.373906e-039
-0.068792641 -0.14837265 -0.08657968 8.8330891e-039
-0.067310423 -0.14901048 -0.086392365 9.0174817e-039
-0.065194868 -0.14894044 -0.086351462 8.9252875e-039
-0.062948398 -0.14877328 -0.086764224 8.8334492e-039
-0.060878277 -0.14908178 -0.086746976 8.6497824e-039
-0.059239648 -0.14908914 -0.087264374 8.742334e-039
-0.056963537 -0.1491117 -0.086965032 8.5575826e-039
-0.054742251 -0.14868554 -0.086814187 7.8207392e-039
-0.05298961 -0.1489244 -0.087137431 7.7289037e-039
-0.05098502 -0.14875512 -0.086586289 7.4530385e-039
-0.048971109 -0.14884765 -0.086672917 6.8073118e-039
-0.046838243 -0.14907639 -0.086612374 6.7158364e-039
-0.045018665 -0.14901988 -0.086856715 6.6240023e-039
-0.043164834 -0.14913599 -0.086839229 6.3484958e-039
-0.040981781 -0.14899939 -0.087160215 6.3492161e-039
-0.039155107 -0.14885707 -0.086927935 5.9807965e-039
-0.03737459 -0.14861451 -0.087161757 5.7982129e-039
-0.034713637 -0.14890665 -0.0872363 6.1681207e-039
-0.033757202 -0.14882249 -0.087422632 5.2461448e-039
-0.030739751 -0.14827213 -0.086798906 5.4305192e-039
-0.028971953 -0.14892754 -0.087020837 7.7335953e-039
-0.026114371 -0.14854124 -0.087338045 5.7088773e-039
-0.024779016 -0.14901255 -0.087070026 7.7397035e-039
-0.02301226 -0.14898193 -0.087069146 1.078072e-038
-0.021030804 -0.14861575 -0.087190509 6.7227028e-039
-0.019071624 -0.14907841 -0.086943358 6.0762417e-039
-0.017916806 -0.14997259 -0.086478062 5.4294192e-039
0.026960112 -0.14984606 -0.087621816 4.423242e-039
0.031236928 -0.14952055 -0.08703427 4.888162e-039
0.032991644 -0.14904699 -0.086794928 7.1905375e-039
0.034655638 -0.14868777 -0.086623594 1.0414852e-038
0.036834355 -0.14841785 -0.086594485 1.0415938e-038
-0.068578571 -0.14724526 -0.086531214 8.6497768e-039
-0.066953763 -0.1471321 -0.086311609 8.8341723e-039
-0.064916044 -0.14693663 -0.087008916 9.1096788e-039
-0.062921442 -0.14717866 -0.087174319 8.8341709e-039
-0.060866542 -0.14682341 -0.086930685 8.7412564e-039
-0.058616787 -0.14689678 -0.087310061 8.5572225e-039
-0.056913562 -0.14727707 -0.086771876 8.2806398e-039
-0.05488354 -0.14692858 -0.086437725 7.0835399e-039
-0.053147957 -0.14716609 -0.086939655 7.0835413e-039
-0.051159397 -0.14691611 -0.086757004 7.0839015e-039
-0.049094219 -0.1469599 -0.086577244 6.4392509e-039
-0.046961702 -0.14695363 -0.086760059 6.2552226e-039
-0.044962127 -0.14696826 -0.086984605 6.1637444e-039
-0.042953894 -0.14706634 -0.087012954 5.796408e-039
-0.04119388 -0.14705227 -0.087217323 5.7045725e-039
-0.038658727 -0.14730993 -0.087148137 5.7049383e-039
-0.036937848 -0.14716385 -0.087104589 5.7956906e-039
-0.03502515 -0.14689231 -0.087006629 5.5191079e-039
-0.032858416 -0.14642511 -0.087267362 5.5201785e-039
-0.030928601 -0.14705572 -0.086910278 5.8893225e-039
-0.028981877 -0.14656076 -0.086941354 6.165199e-039
-0.026627477 -0.14696163 -0.087160438 5.9822552e-039
-0.024977215 -0.1470793 -0.08697629 3.6788078e-039
-0.023121046 -0.14717402 -0.086849757 4.9702669e-039
-0.021503709 -0.1471507 -0.086689822 5.2464895e-039
-0.01949545 -0.14783981 -0.086497188 3.4004259e-039
0.032997034 -0.14759384 -0.086683095 6.544082e-039
0.035122987 -0.14738761 -0.086913876 7.557878e-039
0.036667548 -0.1468237 -0.086936638 9.6772831e-039
0.038725875 -0.14648825 -0.086969517 1.281193e-038
0.040787652 -0.14650971 -0.086721934 1.2629722e-038
0.042373359 -0.14643326 -0.086251512 1.2352419e-038
-0.06698221 -0.14464465 -0.086028486 8.9245728e-039
-0.064873308 -0.14487222 -0.086601794 8.8341779e-039
-0.06285888 -0.14517364 -0.087175623 8.8341723e-039
-0.061422974 -0.14525956 -0.087165199 8.8338135e-039
-0.059088454 -0.14511828 -0.087225161 8.6494209e-039
-0.057081092 -0.1449032 -0.086939409 8.2806426e-039
-0.05489203 -0.14497848 -0.086779393 7.7285478e-039
-0.053059265 -0.14507411 -0.086933836 7.1760971e-039
-0.051034704 -0.14516714 -0.086450174 6.7151259e-039
-0.049039371 -0.14512074 -0.086503014 6.2552212e-039
-0.047035214 -0.14502624 -0.086762533 5.7027747e-039
-0.04501535 -0.14496672 -0.087116525 5.5194652e-039
-0.043048605 -0.14498685 -0.087304942 4.3245304e-039
-0.041172642 -0.14520115 -0.087500915 5.7992891e-039
-0.03849262 -0.14546317 -0.08767122 5.3354397e-039
-0.036473952 -0.14587264 -0.086790845 4.5078749e-039
-0.03512527 -0.14549318 -0.086726569 5.2418119e-039
-0.033025224 -0.14555745 -0.086885206 4.9673845e-039
-0.030783882 -0.14558676 -0.08665958 4.9673845e-039
-0.029091964 -0.1453665 -0.086907297 5.6123881e-039
-0.026753834 -0.14513786 -0.087156907 6.1644703e-039
-0.025121694 -0.14518347 -0.086962774 5.6123825e-039
-0.023224106 -0.14517114 -0.087412104 2.9426861e-039
0.037333354 -0.1456174 -0.086937435 9.3999802e-039
0.038875271 -0.1451249 -0.086990789 1.1151685e-038
0.040890485 -0.14504425 -0.086917333 1.2995241e-038
0.042819716 -0.14449483 -0.086833872 1.4194142e-038
0.044485189 -0.1443568 -0.086898878 1.4286688e-038
0.046505347 -0.14488064 -0.08607816 1.3823959e-038
0.048829913 -0.14409134 -0.08643537 1.1338646e-038
-0.064656019 -0.143204 -0.08630003 9.1096788e-039
-0.062984608 -0.14283121 -0.086327925 8.1888113e-039
-0.060972791 -0.14316255 -0.087002806 8.6494279e-039
-0.059334178 -0.14328918 -0.087453589 8.7416207e-039
-0.056905191 -0.14323081 -0.08690884 8.1891686e-039
-0.054764438 -0.14296873 -0.086519323 7.6367137e-039
-0.052951619 -0.14307007 -0.086901002 7.7281919e-039
-0.050944805 -0.14317872 -0.086825639 6.8991557e-039
-0.048832275 -0.14315099 -0.086712062 5.6113007e-039
-0.046945225 -0.14297287 -0.086778998 4.9666572e-039
-0.045096841 -0.14304484 -0.087124586 4.9673774e-039
-0.043229386 -0.14318462 -0.087470494 4.8795062e-039
-0.041235454 -0.14380112 -0.087665513 5.8021884e-039
-0.030291488 -0.14262323 -0.08716204 8.0069325e-039
-0.02891453 -0.1431205 -0.086981386 8.6515873e-039
-0.026988912 -0.14325675 -0.086988546 9.3895013e-039
-0.02530024 -0.14342797 -0.087030873 8.1923972e-039
0.03918751 -0.14379571 -0.087225825 1.0690697e-038
0.041154858 -0.1436165 -0.087005004 1.188888e-038
0.043087363 -0.14319339 -0.087029822 1.308779e-038
0.045041323 -0.14288659 -0.086889297 1.3917542e-038
0.04690567 -0.14252315 -0.086878389 1.4379599e-038
0.048619818 -0.14252906 -0.086403072 1.4654753e-038
0.050856043 -0.14266193 -0.086930998 1.3182883e-038
0.05255492 -0.14219117 -0.086658761 1.4103764e-038
0.057048745 -0.14241868 -0.086940914 1.7053655e-038
0.058110245 -0.14258653 -0.086530253 1.7053655e-038
-0.064972028 -0.14196968 -0.086442113 6.5300172e-039
-0.062964171 -0.14113386 -0.086281195 7.4516498e-039
-0.060498372 -0.14095637 -0.086544991 6.991008e-039
-0.058775861 -0.14095752 -0.087341018 7.9129334e-039
-0.05689944 -0.14120087 -0.087545037 8.5572449e-039
-0.054619916 -0.14103574 -0.086234793 7.6367179e-039
-0.052865818 -0.14082994 -0.086989306 7.5438076e-039
-0.050864238 -0.14112587 -0.086983345 6.1633983e-039
-0.048936915 -0.14118184 -0.086917505 4.8769895e-039
-0.0469684 -0.14107454 -0.086722188 4.9684677e-039
-0.04506145 -0.14107874 -0.087062761 4.785154e-039
-0.043197475 -0.14095825 -0.087606773 4.5092874e-039
-0.031136874 -0.14082012 -0.087122373 8.2835152e-039
-0.029120717 -0.14100292 -0.087605432 9.6646406e-039
-0.027189534 -0.14148992 -0.086825401 1.021673e-038
0.045527276 -0.14173919 -0.087354377 1.3824629e-038
0.047149494 -0.14123881 -0.087118842 1.3548758e-038
0.048908137 -0.14095157 -0.086958155 1.3917901e-038
0.050918903 -0.14080533 -0.086943835 1.4287042e-038
0.05286536 -0.14080645 -0.086878859 1.4933139e-038
0.055017035 -0.14097361 -0.086939164 1.6039493e-038
0.056858685 -0.14126168 -0.086786583 1.7052572e-038
0.059176572 -0.14036104 -0.086795345 1.7974888e-038
0.06067992 -0.14023818 -0.087073833 1.8344386e-038
-0.058843117 -0.13941064 -0.086843386 7.0817967e-039
-0.056967463 -0.13939874 -0.087188743 7.6370696e-039
-0.055221193 -0.13882232 -0.087247163 6.165185e-039
-0.0529426 -0.13900469 -0.086896852 6.8058936e-039
-0.050762143 -0.13896626 -0.086357892 5.0588556e-039
-0.0480325 -0.13979518 -0.086374938 3.8628432e-039
-0.04681614 -0.1390924 -0.086332746 5.1568218e-039
-0.045075782 -0.13906853 -0.08684697 3.312912e-039
-0.043447234 -0.13896933 -0.087243177 3.6813302e-039
-0.032654826 -0.13894506 -0.087036021 7.8218196e-039
-0.030686814 -0.13995419 -0.087865733 1.0216379e-038
0.04945999 -0.13970011 -0.087043144 1.3641671e-038
0.051173083 -0.13935226 -0.087027535 1.3548034e-038
0.053037759 -0.13893774 -0.087039612 1.3640953e-038
0.054789219 -0.13876775 -0.086924955 1.4194485e-038
0.056785896 -0.1386527 -0.086873531 1.5024256e-038
0.058841407 -0.138955 -0.086928494 1.6592299e-038
0.060628664 -0.13887487 -0.086861782 1.7698286e-038
0.062667184 -0.13859552 -0.086922213 1.8435847e-038
-0.055681765 -0.13749468 -0.087428443 4.1488258e-039
-0.046320487 -0.13680364 -0.086237654 5.0700716e-039
-0.045019064 -0.13729158 -0.086533621 2.7622634e-039
-0.043506019 -0.13682771 -0.086932227 2.8573485e-039
-0.038711883 -0.13690054 -0.087179437 6.8116348e-039
0.05368416 -0.13762423 -0.086699128 1.3364366e-038
0.055105064 -0.13722879 -0.086999312 1.3364364e-038
0.056891318 -0.13680993 -0.087224983 1.3826063e-038
0.058777153 -0.1369701 -0.087045938 1.4655111e-038
0.060953327 -0.13674153 -0.087182023 1.5393747e-038
0.062774874 -0.13656476 -0.087190166 1.7514255e-038
0.064930126 -0.136713 -0.087040417 1.8527698e-038
-0.043476522 -0.1354163 -0.086920433 3.4097992e-039
-0.040317044 -0.13439806 -0.08711829 3.0334412e-039
-0.039558902 -0.13558716 -0.08710631 5.7989234e-039
0.055931401 -0.13570672 -0.086388066 1.2994141e-038
0.057247024 -0.13529417 -0.086951919 1.3179616e-038
0.059011251 -0.13495331 -0.087008387 1.4286325e-038
0.060698535 -0.13498369 -0.087053865 1.557671e-038
0.063086458 -0.13509406 -0.087078124 1.6868887e-038
0.065098852 -0.13464421 -0.086952798 1.7975237e-038
0.066608831 -0.13467962 -0.087478839 1.8804265e-038
-0.044541456 -0.13278919 -0.087340929 8.5695525e-039
-0.043270927 -0.13282621 -0.087328903 7.3742435e-039
-0.041174397 -0.13295847 -0.087272368 2.7630004e-039
0.057688273 -0.1337046 -0.08642225 1.3824263e-038
0.059283502 -0.13321178 -0.087120742 1.3731706e-038
0.060935315 -0.13313596 -0.087010399 1.4378162e-038
0.062897772 -0.13276757 -0.086947195 1.4930977e-038
0.064834632 -0.13304183 -0.087067962 1.6314634e-038
0.066854954 -0.1330139 -0.086911365 1.5854015e-038
0.068899401 -0.13268098 -0.086938255 1.2352753e-038
0.070897758 -0.132505 -0.086825937 6.9117814e-039
0.072271414 -0.13263914 -0.08664538 1.4287474e-038
0.077636622 -0.13203214 -0.087635815 9.0373521e-039
-0.046025384 -0.13159406 -0.087838314 1.6682405e-038
-0.044665433 -0.13087064 -0.086946927 1.0875501e-038
-0.04319454 -0.1309115 -0.087422669 1.0322669e-038
0.059936855 -0.13196264 -0.086449839 1.2718996e-038
0.061243523 -0.13157246 -0.08738064 1.2995212e-038
0.063007824 -0.13106932 -0.086931057 1.2625006e-038
0.065053843 -0.13146734 -0.087013595 1.225622e-038
0.067123644 -0.13139637 -0.087102786 1.2256224e-038
0.069102906 -0.13117258 -0.087028883 6.082378e-039
0.070862032 -0.13086946 -0.087005563 5.5237966e-039
0.072687089 -0.13081302 -0.086727455 6.8130949e-039
0.074870445 -0.13066584 -0.086800471 6.719086e-039
0.077133894 -0.13053381 -0.087454274 8.5648105e-039
0.078969888 -0.13087806 -0.0870509 8.7506381e-039
0.081281587 -0.13073824 -0.086957306 9.5746156e-039
0.082835644 -0.13037845 -0.086823076 9.8508409e-039
0.084030002 -0.13068047 -0.08718548 1.1329954e-038
-0.046368673 -0.12848973 -0.086798437 1.6223576e-038
-0.044728938 -0.12891185 -0.087018609 1.1705228e-038
-0.043187197 -0.12913103 -0.087324545 1.0046423e-038
-0.041701064 -0.12885065 -0.087064385 8.5724139e-039
0.065539129 -0.12986845 -0.086360872 1.0595307e-038
0.069475636 -0.12970468 -0.08721859 4.1433999e-039
0.071080416 -0.12902284 -0.087154686 5.2453993e-039
0.073064171 -0.12896569 -0.086954258 5.9818769e-039
0.074961282 -0.12880385 -0.086908728 6.5336087e-039
0.07695245 -0.12877129 -0.086981922 6.7161965e-039
0.079010919 -0.12876631 -0.086989909 6.9927848e-039
0.081031159 -0.12849167 -0.086680405 7.3604883e-039
0.083041504 -0.12924033 -0.086370222 7.5492012e-039
0.089048639 -0.12862881 -0.086233839 1.1608342e-038
0.090937071 -0.12820804 -0.086659536 1.2533904e-038
-0.046803351 -0.12722924 -0.087113023 1.6221383e-038
-0.04461332 -0.12702174 -0.086673461 1.1336444e-038
-0.043132953 -0.12700753 -0.087306589 1.0414491e-038
-0.041902393 -0.12720115 -0.086887591 8.9397167e-039
0.069788486 -0.12792033 -0.087903135 3.2225086e-039
0.071121715 -0.12741756 -0.087062202 5.1510512e-039
0.073083259 -0.1273244 -0.087079115 6.0719131e-039
0.075067557 -0.1270791 -0.087164745 6.6239995e-039
0.076966695 -0.12698925 -0.087001584 6.8076733e-039
0.07897079 -0.12682752 -0.086883515 6.8995074e-039
0.080934271 -0.12674309 -0.086726889 6.990987e-039
0.082858711 -0.12677719 -0.086734898 7.5437992e-039
0.08472655 -0.12684304 -0.087096177 8.5583085e-039
0.086891957 -0.126489 -0.086946324 8.9274427e-039
0.089190356 -0.12697814 -0.08700645 9.2069079e-039
0.090862982 -0.12675071 -0.086998872 9.0228823e-039
0.093151972 -0.12644857 -0.086562216 8.9353769e-039
-0.046708353 -0.12478652 -0.086444765 1.2077245e-038
-0.044657063 -0.12507035 -0.086921535 8.8493315e-039
-0.043197419 -0.12497882 -0.087004207 1.0230109e-038
-0.041604705 -0.12487552 -0.087165259 9.9524337e-039
0.073485598 -0.12526008 -0.087350577 5.1492562e-039
0.075107753 -0.12520158 -0.087402008 5.6105748e-039
0.077101514 -0.12518296 -0.087511227 6.1626668e-039
0.079005867 -0.1252854 -0.087151982 6.6232806e-039
0.080978312 -0.12510791 -0.087011799 6.8076705e-039
0.083015434 -0.12502562 -0.086922057 7.0838986e-039
0.084796004 -0.12482832 -0.086720876 7.2679284e-039
0.086812668 -0.12490509 -0.086930737 7.8207434e-039
0.088921562 -0.12488122 -0.086798586 8.4657513e-039
0.091125958 -0.12456662 -0.087082893 9.02036e-039
0.093104988 -0.1246471 -0.087257296 8.6537257e-039
0.094349295 -0.12428338 -0.086734392 9.753602e-039
-0.046341501 -0.12268259 -0.086262986 7.1015872e-039
-0.044849962 -0.1230377 -0.086797252 6.9132303e-039
-0.043129653 -0.12312932 -0.08698833 9.4929031e-039
-0.041560143 -0.12311419 -0.087198243 1.0873307e-038
0.077154689 -0.12319445 -0.087727956 5.2425182e-039
0.079065621 -0.12316085 -0.087543778 5.5183834e-039
0.081074469 -0.12319028 -0.087340772 5.7946074e-039
0.083083354 -0.12324978 -0.086916618 6.3470581e-039
0.085089266 -0.12324959 -0.086891316 6.9917016e-039
0.086889222 -0.12287952 -0.086926579 7.1760901e-039
0.088918008 -0.12287959 -0.08690656 7.6367095e-039
0.090899989 -0.12290277 -0.086961292 8.4661114e-039
0.092992269 -0.1230353 -0.086822778 9.296228e-039
0.095094673 -0.12309716 -0.086927526 9.2983916e-039
0.096768856 -0.12275247 -0.086976103 9.2998518e-039
0.098350063 -0.12241016 -0.08704444 8.9372252e-039
-0.046551146 -0.12083599 -0.086327076 7.46786e-039
-0.044925988 -0.12096106 -0.08665546 6.1760296e-039
-0.043053154 -0.12118027 -0.086974457 8.0188492e-039
-0.041420173 -0.12102322 -0.087174051 1.0320126e-038
0.075854078 -0.12019221 -0.087980881 4.5053259e-039
0.077131853 -0.12062927 -0.087761253 4.6904304e-039
0.079116285 -0.12107755 -0.087493725 4.7822673e-039
0.081236631 -0.12108678 -0.087569416 5.3336404e-039
0.08299005 -0.12098903 -0.087304801 5.6102231e-039
0.08490508 -0.1210347 -0.086928971 6.2545065e-039
0.086867116 -0.12103689 -0.086741954 6.7154763e-039
0.088963658 -0.12107432 -0.086956501 7.6359906e-039
0.091049634 -0.12087528 -0.086965576 7.7281863e-039
0.093021482 -0.12092177 -0.086772837 8.2813628e-039
0.09495277 -0.12066625 -0.086778857 8.9263665e-039
0.096944898 -0.12105817 -0.086909994 9.572459e-039
0.098967656 -0.12145046 -0.086678296 9.2087324e-039
