# .PCD v0.7 - Point Cloud Data file format
VERSION 0.7
FIELDS x y z rgb
SIZE 4 4 4 4
TYPE F F F F
COUNT 1 1 1 1
WIDTH 1064
HEIGHT 1
VIEWPOINT 0 0 0 1 0 0 0
POINTS 1064
DATA ascii
0.10150286 0.32415429 1.146 2.114373e-39
0.10368571 0.32415429 1.146 1.9314195e-39
0.10586857 0.32415429 1.146 1.9321369e-39
0.10805143 0.32415429 1.146 1.9314181e-39
0.11061905 0.32528573 1.1500001 1.7473884e-39
0.11280953 0.32528573 1.1500001 1.6555529e-39
0.11500001 0.32528573 1.1500001 1.6555543e-39
0.11678286 0.32415429 1.146 1.7473884e-39
0.11896572 0.32415429 1.146 1.6555529e-39
0.12114857 0.32415429 1.146 1.6555529e-39
0.12333143 0.32415429 1.146 1.9310593e-39
0.1255143 0.32415429 1.146 2.2065658e-39
0.12769714 0.32415429 1.146 1.9310593e-39
0.12988001 0.32415429 1.146 1.7473884e-39
0.13252382 0.32528573 1.1500001 1.6555529e-39
0.13471429 0.32528573 1.1500001 1.6555529e-39
0.13690478 0.32528573 1.1500001 1.6555543e-39
0.13861144 0.32415429 1.146 1.747031e-39
0.14128572 0.32528573 1.1500001 1.9303433e-39
0.1434762 0.32528573 1.1500001 2.2058512e-39
0.14566667 0.32528573 1.1500001 2.205854e-39
0.14785716 0.32528573 1.1500001 2.2062099e-39
0.15004763 0.32528573 1.1500001 1.9310593e-39
0.1522381 0.32528573 1.1500001 1.7473884e-39
0.15442857 0.32528573 1.1500001 1.6559116e-39
0.15661906 0.32528573 1.1500001 1.5644362e-39
0.15880954 0.32528573 1.1500001 1.8413776e-39
0.16044 0.32415429 1.146 2.1154492e-39
0.16262285 0.32415429 1.146 2.0239724e-39
0.16480571 0.32415429 1.146 2.0236137e-39
0.16698857 0.32415429 1.146 2.0236123e-39
0.16799048 0.32189143 1.138 2.0239724e-39
0.17075619 0.32302287 1.1420001 1.9321369e-39
0.17459714 0.32613429 1.153 1.9317768e-39
0.17633334 0.32528573 1.1500001 1.8395826e-39
0.17852382 0.32528573 1.1500001 1.8399413e-39
0.18071429 0.32528573 1.1500001 1.932853e-39
0.18226857 0.32415429 1.146 2.0243298e-39
0.18509525 0.32528573 1.1500001 2.2072819e-39
0.18728572 0.32528573 1.1500001 2.4827912e-39
0.18947621 0.32528573 1.1500001 2.4824339e-39
0.19166668 0.32528573 1.1500001 2.4824339e-39
0.19385716 0.32528573 1.1500001 2.5742694e-39
0.19604763 0.32528573 1.1500001 2.7582991e-39
0.19823812 0.32528573 1.1500001 2.575347e-39
0.20042858 0.32528573 1.1500001 2.3916746e-39
0.20261906 0.32528573 1.1500001 2.7593739e-39
0.20480955 0.32528573 1.1500001 3.1270746e-39
0.20700002 0.32528573 1.1500001 3.1277921e-39
0.2091905 0.32528573 1.1500001 3.1274333e-39
0.21193239 0.32613429 1.153 3.127076e-39
0.21412857 0.32613429 1.153 3.1274361e-39
0.21632476 0.32613429 1.153 3.2196304e-39
0.21927905 0.32726574 1.1570001 3.3114673e-39
0.22071715 0.32613429 1.153 3.4954998e-39
0.22368668 0.32726574 1.1570001 3.7717307e-39
0.22589049 0.32726574 1.1570001 3.6770324e-39
0.22809429 0.32726574 1.1570001 3.6799037e-39
0.23029812 0.32726574 1.1570001 3.4040398e-39
0.23250191 0.32726574 1.1570001 3.1299683e-39
0.23470572 0.32726574 1.1570001 3.9582828e-39
0.23690954 0.32726574 1.1570001 4.8802251e-39
0.23911335 0.32726574 1.1570001 5.2515131e-39
0.24048285 0.32613429 1.153 5.7106892e-39
0.24352098 0.32726574 1.1570001 6.2617008e-39
0.24487522 0.32613429 1.153 6.8130795e-39
0.24792857 0.32726574 1.1570001 7.2729829e-39
0.25099713 0.32839715 1.161 7.731796e-39
0.25320855 0.32839715 1.161 7.4562839e-39
0.2563 0.3295286 1.1650001 7.1814935e-39
0.25851905 0.3295286 1.1650001 7.1825683e-39
0.2607381 0.3295286 1.1650001 7.2744038e-39
0.26295716 0.3295286 1.1650001 7.366598e-39
0.26517621 0.3295286 1.1650001 7.458072e-39
0.26739526 0.3295286 1.1650001 7.4566342e-39
0.27054 0.33066002 1.169 7.5484683e-39
0.27276665 0.33066002 1.169 7.4569916e-39
0.27499333 0.33066002 1.169 7.3647987e-39
0.27816859 0.33179146 1.1730001 7.2726059e-39
0.2804029 0.33179146 1.1730001 7.2726101e-39
0.28360096 0.33292285 1.177 7.2726143e-39
0.28584287 0.33292285 1.177 7.2726213e-39
0.28808478 0.33292285 1.177 7.3648226e-39
0.29131335 0.33405429 1.1810001 7.5477705e-39
0.29356289 0.33405429 1.1810001 7.0882287e-39
0.29681432 0.33518571 1.1850001 6.627982e-39
0.29907146 0.33518571 1.1850001 6.7223342e-39
0.30234572 0.33631712 1.189 6.8119977e-39
0.30461049 0.33631712 1.189 6.5361129e-39
0.30790761 0.33744857 1.1930001 6.35173e-39
0.31018001 0.33744857 1.1930001 6.2595414e-39
0.31350002 0.33858001 1.197 6.2577505e-39
0.31577998 0.33858001 1.197 5.9797357e-39
0.31938857 0.33999431 1.202 5.7049453e-39
0.32274857 0.34112576 1.2060001 5.3383194e-39
0.32612383 0.34225717 1.21 4.9720564e-39
0.32842857 0.34225717 1.21 5.338325e-39
0.33182669 0.34338862 1.2140001 5.7971353e-39
0.33413908 0.34338862 1.2140001 5.7971283e-39
0.33783716 0.34480289 1.2190001 5.7982059e-39
0.34127524 0.3459343 1.223 5.707448e-39
0.34472859 0.34706575 1.2270001 5.7078081e-39
0.34706575 0.34706575 1.2270001 5.6166915e-39
0.3494029 0.34706575 1.2270001 5.5234183e-39
0.35317335 0.34848002 1.2320001 5.6159684e-39
0.35552001 0.34848002 1.2320001 5.7060117e-39
0.3578667 0.34848002 1.2320001 5.5209086e-39
0.36138287 0.34961143 1.2360001 5.3368746e-39
0.36373714 0.34961143 1.2360001 4.9684522e-39
0.36727619 0.35074285 1.24 4.5989565e-39
0.37112856 0.35215715 1.245 4.414568e-39
0.37349999 0.35215715 1.245 4.2319802e-39
0.40219525 0.32726574 1.1570001 6.4486774e-39
0.40439907 0.32726574 1.1570001 6.8196124e-39
0.40519714 0.32613429 1.153 7.098353e-39
0.40633336 0.32528573 1.1500001 7.4682132e-39
0.40852386 0.32528573 1.1500001 7.5600557e-39
0.4107143 0.32528573 1.1500001 7.6518968e-39
0.4129048 0.32528573 1.1500001 7.7440966e-39
0.41365144 0.32415429 1.146 7.8359237e-39
0.41583428 0.32415429 1.146 7.8359167e-39
0.41801715 0.32415429 1.146 7.8348293e-39
0.41873336 0.32302287 1.1420001 7.5589542e-39
0.4209086 0.32302287 1.1420001 7.3738595e-39
0.42308384 0.32302287 1.1420001 7.4660664e-39
0.42525908 0.32302287 1.1420001 7.5589795e-39
0.42593715 0.32189143 1.138 7.6511765e-39
0.42810476 0.32189143 1.138 7.7437267e-39
0.42876002 0.32076001 1.1340001 7.8355579e-39
0.43092003 0.32076001 1.1340001 8.0203121e-39
0.43308005 0.32076001 1.1340001 8.2043489e-39
0.43524 0.32076001 1.1340001 8.4812959e-39
0.43624288 0.31991145 1.131 8.7586017e-39
0.43839714 0.31991145 1.131 9.1259478e-39
-0.23072001 0.22325334 0.78400004 1.2445711e-38
-0.22922668 0.22325334 0.78400004 1.2445356e-38
-0.2283143 0.22382286 0.78600001 1.253647e-38
-0.2273943 0.2243924 0.78800005 1.2444272e-38
-0.22589335 0.2243924 0.78800005 1.2445708e-38
-0.2243924 0.2243924 0.78800005 1.2353875e-38
-0.22289144 0.2243924 0.78800005 1.2262399e-38
-0.22167143 0.22467715 0.78900003 1.244607e-38
-0.22016859 0.22467715 0.78900003 1.2721572e-38
-0.21866572 0.22467715 0.78900003 1.2721568e-38
-0.21716286 0.22467715 0.78900003 1.2721566e-38
-0.21566001 0.22467715 0.78900003 1.2813042e-38
-0.2147 0.22524667 0.79100001 1.290488e-38
-0.21319333 0.22524667 0.79100001 1.2721212e-38
-0.21222191 0.22581619 0.79300004 1.253755e-38
-0.21071143 0.22581619 0.79300004 1.2445725e-38
-0.20867334 0.22524667 0.79100001 1.2445709e-38
-0.20769049 0.22581619 0.79300004 1.2445694e-38
-0.20618001 0.22581619 0.79300004 1.2537899e-38
-0.20570192 0.22695525 0.79700005 1.2537911e-38
-0.20418383 0.22695525 0.79700005 1.2538265e-38
-0.20266572 0.22695525 0.79700005 1.2721214e-38
-0.20140001 0.22724 0.79800004 1.2996362e-38
-0.19988 0.22724 0.79800004 1.2536826e-38
-0.19836001 0.22724 0.79800004 1.2169483e-38
-0.19684 0.22724 0.79800004 1.2353871e-38
-0.19532001 0.22724 0.79800004 1.2629735e-38
-0.19428571 0.22780952 0.80000001 1.2629734e-38
-0.19276191 0.22780952 0.80000001 1.2721212e-38
-0.19123809 0.22780952 0.80000001 1.2537901e-38
-0.19018859 0.22837907 0.80200005 1.2446067e-38
-0.18866096 0.22837907 0.80200005 1.2446068e-38
-0.1876 0.22894858 0.80400002 1.2445351e-38
-0.18653144 0.22951812 0.80600005 1.2537186e-38
-0.1849962 0.22951812 0.80600005 1.2629024e-38
-0.18346097 0.22951812 0.80600005 1.2353521e-38
-0.18192573 0.22951812 0.80600005 1.207837e-38
-0.18039049 0.22951812 0.80600005 1.2445351e-38
-0.17929906 0.23008762 0.80800003 1.2812693e-38
-0.17820001 0.23065716 0.81000006 1.2537188e-38
-0.17665716 0.23065716 0.81000006 1.2260961e-38
-0.17554668 0.23122667 0.81200004 1.2352795e-38
-0.17442858 0.23179619 0.81400001 1.2536464e-38
-0.1728781 0.23179619 0.81400001 1.2720493e-38
-0.17132762 0.23179619 0.81400001 1.2812327e-38
-0.16977714 0.23179619 0.81400001 1.2628656e-38
-0.16843334 0.23208097 0.81500006 1.2445346e-38
-0.16688095 0.23208097 0.81500006 1.2445709e-38
-0.16532859 0.23208097 0.81500006 1.2446424e-38
-0.1637762 0.23208097 0.81500006 1.2538617e-38
-0.16262192 0.23265047 0.81700003 1.2630814e-38
-0.1618543 0.23378953 0.82100004 1.2262757e-38
-0.16029048 0.23378953 0.82100004 1.1895057e-38
-0.15872668 0.23378953 0.82100004 1.1435879e-38
-0.15716286 0.23378953 0.82100004 1.106889e-38
-0.15559906 0.23378953 0.82100004 1.0701901e-38
-0.15403526 0.23378953 0.82100004 1.0334918e-38
-0.15247142 0.23378953 0.82100004 9.9654251e-39
-0.15090762 0.23378953 0.82100004 9.6881236e-39
-0.14934382 0.23378953 0.82100004 8.9516459e-39
-0.14778 0.23378953 0.82100004 8.3069828e-39
-0.14692858 0.23492859 0.82500005 7.7516454e-39
-0.14535716 0.23492859 0.82500005 7.2881575e-39
-0.14378572 0.23492859 0.82500005 6.9179401e-39
-0.14255904 0.2354981 0.82700002 6.548087e-39
-0.14098382 0.2354981 0.82700002 5.8966289e-39
-0.13974573 0.23606764 0.82900006 5.2455128e-39
-0.13816668 0.23606764 0.82900006 4.8738492e-39
-0.13658762 0.23606764 0.82900006 4.5021618e-39
-0.13500857 0.23606764 0.82900006 4.3209613e-39
-0.13375144 0.23663715 0.83100003 4.1401587e-39
-0.13216858 0.23663715 0.83100003 3.8610649e-39
-0.13058572 0.23663715 0.83100003 3.5819613e-39
-0.12900285 0.23663715 0.83100003 3.0312986e-39
-0.12741999 0.23663715 0.83100003 2.5724785e-39
-0.12583713 0.23663715 0.83100003 1.9299874e-39
-0.12425429 0.23663715 0.83100003 1.3793303e-39
-0.21301429 0.41091144 1.4430001 1.3807624e-39
-0.21026573 0.41091144 1.4430001 1.3825659e-39
-0.20751715 0.41091144 1.4430001 1.3829358e-39
-0.20476858 0.41091144 1.4430001 1.3836715e-39
-0.20202002 0.41091144 1.4430001 1.7517492e-39
-0.11586191 0.23891525 0.83900005 2.0279661e-39
-0.11426381 0.23891525 0.83900005 2.1205121e-39
-0.11266571 0.23891525 0.83900005 2.2130538e-39
-0.18480381 0.39752764 1.396 2.4878331e-39
-0.18214476 0.39752764 1.396 2.8544632e-39
-0.17948572 0.39752764 1.396 2.7626347e-39
-0.17682667 0.39752764 1.396 2.7636997e-39
-0.17341906 0.3958191 1.3900001 2.6711355e-39
-0.17015715 0.39439526 1.3850001 2.6707866e-39
-0.16679335 0.39268667 1.3790001 2.6707978e-39
-0.16357145 0.39126286 1.3740001 2.7626445e-39
-0.1609543 0.39126286 1.3740001 2.9470442e-39
-0.15764572 0.38955429 1.368 3.0385097e-39
-0.15447333 0.38813049 1.363 2.488203e-39
-0.15132 0.38670668 1.358 2.0297444e-39
-0.14873333 0.38670668 1.358 2.3052523e-39
-0.14550097 0.38499814 1.3520001 2.6725999e-39
-0.14292572 0.38499814 1.3520001 2.7640822e-39
-0.13931239 0.38215047 1.342 2.7637165e-39
-0.13614477 0.38044193 1.3360001 2.7637095e-39
-0.1331 0.37901813 1.3310001 2.8562597e-39
-0.13007429 0.37759432 1.3260001 2.9480923e-39
-0.12706763 0.37617052 1.3210001 3.0402866e-39
-0.12360859 0.3733229 1.3110001 2.9480923e-39
-0.12111144 0.3733229 1.3110001 2.9480909e-39
-0.11816191 0.3718991 1.3060001 3.1317619e-39
-0.11567429 0.3718991 1.3060001 3.2236072e-39
-0.11275335 0.37047526 1.3010001 3.0399475e-39
-0.10985143 0.36905143 1.296 2.7655116e-39
-0.10696857 0.36762762 1.291 2.8566254e-39
-0.10418572 0.36648858 1.2870001 2.9477308e-39
-0.10133905 0.36506477 1.2820001 2.8558841e-39
-0.098511435 0.36364096 1.2770001 2.7644186e-39
-0.095702864 0.36221716 1.2720001 2.5807588e-39
-0.092986666 0.36107808 1.268 2.3970892e-39
-0.090214282 0.35965428 1.263 2.5807616e-39
-0.087808572 0.35965428 1.263 2.7655088e-39
-0.08513239 0.35851523 1.2590001 2.9481036e-39
-0.082405716 0.35709143 1.2540001 3.1317731e-39
-0.080017149 0.35709143 1.2540001 2.7644312e-39
-0.077319048 0.35566762 1.2490001 2.3970892e-39
-0.0744 0.35310477 1.24 2.8562667e-39
-0.071805716 0.35196573 1.2360001 3.316156e-39
-0.069451429 0.35196573 1.2360001 3.0402866e-39
-0.066880003 0.35082671 1.2320001 2.7644214e-39
-0.064271435 0.3494029 1.2270001 2.856617e-39
-0.061732382 0.3482638 1.223 2.9491685e-39
-0.059208576 0.34712479 1.2190001 3.0406453e-39
-0.056653336 0.34570098 1.2140001 3.1321235e-39
-0.054161906 0.3445619 1.21 2.9480951e-39
-0.051685717 0.34342289 1.2060001 2.7630018e-39
-0.049388576 0.34342289 1.2060001 2.9474029e-39
-0.046935238 0.34228382 1.202 3.1314242e-39
-0.044460002 0.34086001 1.197 3.0410153e-39
-0.041898094 0.33858192 1.189 2.948828e-39
-0.039500002 0.33744287 1.1850001 3.1321487e-39
-0.037117146 0.33630386 1.1810001 3.3154427e-39
-0.034749523 0.33516476 1.177 3.40726e-39
-0.032286666 0.33288667 1.169 3.4990913e-39
-0.030060001 0.33288667 1.169 3.4068943e-39
-0.027738096 0.33174765 1.1650001 3.4065299e-39
-0.025519049 0.33174765 1.1650001 3.5894793e-39
-0.023220001 0.33060858 1.161 3.7727915e-39
-0.020936191 0.32946953 1.1570001 3.7724342e-39
-0.018667618 0.32833049 1.153 3.771358e-39
-0.016471429 0.32833049 1.153 3.6795225e-39
-0.014238096 0.32747623 1.1500001 3.496213e-39
-0.012005714 0.32633716 1.146 3.4958571e-39
-0.0098228576 0.32633716 1.146 3.5876898e-39
-0.0076400004 0.32633716 1.146 3.771358e-39
-0.0054380959 0.32519811 1.1420001 3.9550276e-39
-0.0032628572 0.32519811 1.1420001 3.5862493e-39
-0.0010838095 0.32405904 1.138 3.2189087e-39
0.0010838095 0.32405904 1.138 2.9426875e-39
0.0032400002 0.32291999 1.1340001 2.6664622e-39
0.0054190475 0.32405904 1.138 2.2072833e-39
0.0075866668 0.32405904 1.138 1.7484632e-39
0.0097200004 0.32291999 1.1340001 1.8402986e-39
0.011880001 0.32291999 1.1340001 1.9321341e-39
0.014040001 0.32291999 1.1340001 2.2076406e-39
0.016157143 0.32206571 1.131 2.5753414e-39
0.018360002 0.32291999 1.1340001 2.2994775e-39
0.020465715 0.32206571 1.131 2.0239724e-39
0.022620002 0.32206571 1.131 1.8403029e-39
0.024774285 0.32206571 1.131 1.6566319e-39
0.026928572 0.32206571 1.131 1.9321383e-39
0.029082857 0.32206571 1.131 2.2076448e-39
0.031237142 0.32206571 1.131 2.1158093e-39
0.033391427 0.32206571 1.131 2.1158093e-39
0.035640001 0.32291999 1.1340001 2.2076448e-39
0.037800003 0.32291999 1.1340001 2.3001964e-39
0.039960004 0.32291999 1.1340001 2.1158065e-39
0.042120002 0.32291999 1.1340001 2.0243298e-39
0.044280004 0.32291999 1.1340001 2.023971e-39
0.046440002 0.32291999 1.1340001 2.0239696e-39
0.048600003 0.32291999 1.1340001 2.1154464e-39
0.050760005 0.32291999 1.1340001 2.2987587e-39
0.052920002 0.32291999 1.1340001 2.1147289e-39
0.055080004 0.32291999 1.1340001 2.0228962e-39
0.057240006 0.32291999 1.1340001 2.0232592e-39
0.05981905 0.32519811 1.1420001 2.0236151e-39
0.061777141 0.32405904 1.138 1.9317782e-39
0.064169526 0.32519811 1.1420001 1.9317852e-39
0.06634476 0.32519811 1.1420001 1.7477625e-39
0.068520002 0.32519811 1.1420001 1.6573563e-39
0.070695244 0.32519811 1.1420001 1.6562759e-39
0.072870485 0.32519811 1.1420001 1.7484702e-39
0.07504572 0.32519811 1.1420001 1.6562759e-39
0.076950483 0.32405904 1.138 1.6559144e-39
0.079118095 0.32405904 1.138 1.7481072e-39
0.081285715 0.32405904 1.138 1.8403015e-39
0.083453335 0.32405904 1.138 1.9321369e-39
0.085620955 0.32405904 1.138 2.1158093e-39
0.087788574 0.32405904 1.138 2.1147359e-39
0.089956194 0.32405904 1.138 2.2065686e-39
0.092447624 0.32519811 1.1420001 1.9310608e-39
0.094622858 0.32519811 1.1420001 1.7473912e-39
0.096459046 0.32405904 1.138 2.0229005e-39
0.098626666 0.32405904 1.138 2.2984041e-39
0.10114858 0.32519811 1.1420001 2.2062085e-39
0.10332382 0.32519811 1.1420001 2.2076434e-39
0.10549906 0.32519811 1.1420001 2.1158079e-39
0.10767429 0.32519811 1.1420001 2.0239724e-39
0.10984953 0.32519811 1.1420001 1.9321369e-39
0.11241715 0.32633716 1.146 1.8403e-39
0.11420001 0.32519811 1.1420001 1.7488233e-39
0.11596762 0.32405904 1.138 1.6573465e-39
0.11813524 0.32405904 1.138 1.7473884e-39
0.12030286 0.32405904 1.138 1.9310593e-39
0.12247047 0.32405904 1.138 2.0228962e-39
0.12463809 0.32405904 1.138 2.1147317e-39
0.12680571 0.32405904 1.138 2.023255e-39
0.12942667 0.32519811 1.1420001 1.9317768e-39
0.13160191 0.32519811 1.1420001 1.9310593e-39
0.13377714 0.32519811 1.1420001 1.9310608e-39
0.1359524 0.32519811 1.1420001 1.9307048e-39
0.13812762 0.32519811 1.1420001 2.0221816e-39
0.14079428 0.32633716 1.146 2.1140171e-39
0.14297715 0.32633716 1.146 2.2976909e-39
0.14516 0.32633716 1.146 2.2062183e-39
0.14734286 0.32633716 1.146 2.2065714e-39
0.14952572 0.32633716 1.146 2.114373e-39
0.15170857 0.32633716 1.146 2.0236137e-39
0.15389143 0.32633716 1.146 2.0236137e-39
0.15607429 0.32633716 1.146 2.0239724e-39
0.15770477 0.32519811 1.1420001 2.2076448e-39
0.15988001 0.32519811 1.1420001 2.2994803e-39
0.16148761 0.32405904 1.138 2.2076448e-39
0.16365524 0.32405904 1.138 2.1161681e-39
0.16582285 0.32405904 1.138 2.1158093e-39
0.16799048 0.32405904 1.138 2.1158093e-39
0.17015809 0.32405904 1.138 2.2076448e-39
0.17232572 0.32405904 1.138 2.2998377e-39
0.17449333 0.32405904 1.138 2.2998363e-39
0.17666095 0.32405904 1.138 2.2998363e-39
0.17882857 0.32405904 1.138 2.4835073e-39
0.18099619 0.32405904 1.138 2.7590137e-39
0.18380763 0.32519811 1.1420001 2.8504905e-39
0.18663429 0.32633716 1.146 3.0341643e-39
0.18881716 0.32633716 1.146 2.9423316e-39
0.191 0.32633716 1.146 2.8508548e-39
0.19318287 0.32633716 1.146 2.9430491e-39
0.19536571 0.32633716 1.146 3.1270802e-39
0.19754858 0.32633716 1.146 3.0359636e-39
0.19973142 0.32633716 1.146 3.0366782e-39
0.2019143 0.32633716 1.146 3.3125421e-39
0.20409714 0.32633716 1.146 3.5884059e-39
0.20628001 0.32633716 1.146 3.5887632e-39
0.20846285 0.32633716 1.146 3.5891247e-39
0.21138096 0.32747623 1.1500001 3.7727985e-39
0.21357144 0.32747623 1.1500001 3.864634e-39
0.21576191 0.32747623 1.1500001 4.0490239e-39
0.2179524 0.32747623 1.1500001 4.3252478e-39
0.22014287 0.32747623 1.1500001 4.6000383e-39
0.22291334 0.32833049 1.153 4.8748399e-39
0.22510953 0.32833049 1.153 4.9663307e-39
0.2267143 0.32747623 1.1500001 5.1496471e-39
0.2295019 0.32833049 1.153 5.0603284e-39
0.2316981 0.32833049 1.153 5.0631968e-39
0.23389429 0.32833049 1.153 5.6167195e-39
0.23609048 0.32833049 1.153 6.0787613e-39
0.23828667 0.32833049 1.153 6.354981e-39
0.24048285 0.32833049 1.153 6.7233936e-39
0.24267904 0.32833049 1.153 6.9992532e-39
0.24572478 0.32946953 1.1570001 7.2754828e-39
0.24792857 0.32946953 1.1570001 7.4588006e-39
0.25099713 0.33060858 1.161 7.6424716e-39
0.25320855 0.33060858 1.161 7.5506375e-39
0.25542 0.33060858 1.161 7.3673239e-39
0.25763142 0.33060858 1.161 7.3666064e-39
0.2607381 0.33174765 1.1650001 7.4580804e-39
0.26295716 0.33174765 1.1650001 7.458079e-39
0.26517621 0.33174765 1.1650001 7.550269e-39
0.26739526 0.33174765 1.1650001 7.5499061e-39
0.26961431 0.33174765 1.1650001 7.5499061e-39
0.27276665 0.33288667 1.169 7.6413828e-39
0.27499333 0.33288667 1.169 7.6410269e-39
0.27816859 0.33402574 1.1730001 7.457e-39
0.28135905 0.33516476 1.177 7.3651673e-39
0.28360096 0.33516476 1.177 7.2729773e-39
0.28584287 0.33516476 1.177 7.180797e-39
0.28808478 0.33516476 1.177 7.0889756e-39
0.29131335 0.33630386 1.1810001 7.0889657e-39
0.29356289 0.33630386 1.1810001 6.4450313e-39
0.29681432 0.33744287 1.1850001 5.8011192e-39
0.29907146 0.33744287 1.1850001 6.0766383e-39
0.30234572 0.33858192 1.189 6.444304e-39
0.30563524 0.33972096 1.1930001 6.0758522e-39
0.30790761 0.33972096 1.1930001 5.7077983e-39
0.31121999 0.34086001 1.197 5.9840279e-39
0.31350002 0.34086001 1.197 6.3484958e-39
0.31709906 0.34228382 1.202 6.1651807e-39
0.31938857 0.34228382 1.202 6.0737152e-39
0.32274857 0.34342289 1.2060001 5.7989374e-39
0.32612383 0.3445619 1.21 5.524154e-39
0.32951429 0.34570098 1.2140001 5.7996661e-39
0.33182669 0.34570098 1.2140001 6.0755229e-39
0.33413908 0.34570098 1.2140001 5.9833202e-39
0.33894572 0.3482638 1.223 5.9829601e-39
0.34127524 0.3482638 1.223 5.9833174e-39
0.34472859 0.3494029 1.2270001 5.8918407e-39
0.34706575 0.3494029 1.2270001 5.7996464e-39
0.35082671 0.35082671 1.2320001 5.7989276e-39
0.35317335 0.35082671 1.2320001 5.7985688e-39
0.35552001 0.35082671 1.2320001 5.8904057e-39
0.3578667 0.35082671 1.2320001 5.7056614e-39
0.36138287 0.35196573 1.2360001 5.6123853e-39
0.3649143 0.35310477 1.24 5.2432455e-39
0.36727619 0.35310477 1.24 4.8748273e-39
0.37112856 0.35452858 1.245 4.5074853e-39
0.37349999 0.35452858 1.245 4.2319788e-39
0.40439907 0.32946953 1.1570001 6.7259804e-39
0.40660286 0.32946953 1.1570001 7.0043637e-39
0.40739334 0.32833049 1.153 7.1934227e-39
0.40958953 0.32833049 1.153 7.3763833e-39
0.4107143 0.32747623 1.1500001 7.5593466e-39
0.4129048 0.32747623 1.1500001 7.6511933e-39
0.41365144 0.32633716 1.146 7.8352104e-39
0.41583428 0.32633716 1.146 7.9270347e-39
0.41801715 0.32633716 1.146 8.1106875e-39
0.42020002 0.32633716 1.146 7.6507743e-39
0.42238286 0.32633716 1.146 7.1905389e-39
0.42308384 0.32519811 1.1420001 7.3749469e-39
0.42525908 0.32519811 1.1420001 7.5593382e-39
0.4274343 0.32519811 1.1420001 7.6515352e-39
0.42810476 0.32405904 1.138 7.7437239e-39
0.4302724 0.32405904 1.138 7.8359125e-39
0.43244001 0.32405904 1.138 7.9284752e-39
0.43308005 0.32291999 1.1340001 8.204709e-39
0.43524 0.32291999 1.1340001 8.4820162e-39
0.43624288 0.32206571 1.131 8.8504428e-39
0.43839714 0.32206571 1.131 9.2177931e-39
-0.2455705 0.22331335 0.77900004 1.2630095e-38
-0.24408668 0.22331335 0.77900004 1.2813047e-38
-0.24260287 0.22331335 0.77900004 1.2721212e-38
-0.24142858 0.22360002 0.78000003 1.2721212e-38
-0.23963526 0.22331335 0.77900004 1.2721212e-38
-0.23815145 0.22331335 0.77900004 1.2721216e-38
-0.23697144 0.22360002 0.78000003 1.2629385e-38
-0.23548572 0.22360002 0.78000003 1.2629378e-38
-0.23400001 0.22360002 0.78000003 1.272049e-38
-0.23311049 0.22417335 0.78200006 1.2904162e-38
-0.23162098 0.22417335 0.78200006 1.2720493e-38
-0.23072001 0.22474667 0.78400004 1.262866e-38
-0.22981143 0.22532 0.78600001 1.262902e-38
-0.2283143 0.22532 0.78600001 1.2628299e-38
-0.22681715 0.22532 0.78600001 1.25361e-38
-0.22589335 0.22589335 0.78800005 1.2537183e-38
-0.2243924 0.22589335 0.78800005 1.2537909e-38
-0.22289144 0.22589335 0.78800005 1.2537906e-38
-0.22139049 0.22589335 0.78800005 1.2629023e-38
-0.22016859 0.22618002 0.78900003 1.2720854e-38
-0.21866572 0.22618002 0.78900003 1.2721209e-38
-0.21716286 0.22618002 0.78900003 1.2721207e-38
-0.21620667 0.22675334 0.79100001 1.2721207e-38
-0.2147 0.22675334 0.79100001 1.2721209e-38
-0.21319333 0.22675334 0.79100001 1.2629376e-38
-0.21222191 0.22732668 0.79300004 1.2537546e-38
-0.21071143 0.22732668 0.79300004 1.2538629e-38
-0.20920096 0.22732668 0.79300004 1.2537545e-38
-0.20769049 0.22732668 0.79300004 1.2537536e-38
-0.20618001 0.22732668 0.79300004 1.2537901e-38
-0.20518573 0.2279 0.79500002 1.2537908e-38
-0.20367144 0.2279 0.79500002 1.2537905e-38
-0.20266572 0.22847335 0.79700005 1.2904885e-38
-0.20114763 0.22847335 0.79700005 1.3271511e-38
-0.19988 0.22876 0.79800004 1.2628663e-38
-0.19836001 0.22876 0.79800004 1.1985813e-38
-0.19733332 0.22933334 0.80000001 1.2262393e-38
-0.19580953 0.22933334 0.80000001 1.2537898e-38
-0.19428571 0.22933334 0.80000001 1.2629734e-38
-0.19324382 0.22990668 0.80200005 1.2721568e-38
-0.19171621 0.22990668 0.80200005 1.2537897e-38
-0.19066286 0.23048002 0.80400002 1.2354227e-38
-0.18913142 0.23048002 0.80400002 1.2354228e-38
-0.1876 0.23048002 0.80400002 1.2445345e-38
-0.18653144 0.23105335 0.80600005 1.2536822e-38
-0.1849962 0.23105335 0.80600005 1.2720503e-38
-0.18346097 0.23105335 0.80600005 1.2444647e-38
-0.18192573 0.23105335 0.80600005 1.2262047e-38
-0.18039049 0.23105335 0.80600005 1.2262041e-38
-0.17929906 0.23162667 0.80800003 1.2353877e-38
-0.17820001 0.23220001 0.81000006 1.2170206e-38
-0.17665716 0.23220001 0.81000006 1.2078728e-38
-0.17554668 0.23277335 0.81200004 1.2354593e-38
-0.17442858 0.23334667 0.81400001 1.2721214e-38
-0.1728781 0.23334667 0.81400001 1.2812688e-38
-0.17132762 0.23334667 0.81400001 1.2904881e-38
-0.16977714 0.23334667 0.81400001 1.2813763e-38
-0.16822666 0.23334667 0.81400001 1.272264e-38
-0.16688095 0.23363335 0.81500006 1.2631517e-38
-0.16573429 0.23420668 0.81700003 1.2628992e-38
-0.1641781 0.23420668 0.81700003 1.2534992e-38
-0.16302001 0.23478001 0.81900007 1.2442444e-38
-0.1618543 0.23535335 0.82100004 1.2074751e-38
-0.16029048 0.23535335 0.82100004 1.1706691e-38
-0.15872668 0.23535335 0.82100004 1.0696142e-38
-0.15716286 0.23535335 0.82100004 9.6812726e-39
-0.15559906 0.23535335 0.82100004 8.8500742e-39
-0.15403526 0.23535335 0.82100004 8.112149e-39
-0.15247142 0.23535335 0.82100004 7.466058e-39
-0.15090762 0.23535335 0.82100004 6.8199753e-39
-0.14934382 0.23535335 0.82100004 5.4395674e-39
-0.14778 0.23535335 0.82100004 4.055205e-39
-0.14657238 0.23592667 0.82300001 3.1300201e-39
-0.14535716 0.23650001 0.82500005 2.2084324e-39
-0.14413428 0.23707333 0.82700002 1.5623525e-39
-0.14255904 0.23707333 0.82700002 1.0109822e-39
-0.14098382 0.23707333 0.82700002 7.3511837e-40
-0.13974573 0.23764668 0.82900006 4.5960488e-40
-0.13816668 0.23764668 0.82900006 3.6812111e-40
-0.13658762 0.23764668 0.82900006 2.7770653e-40
-0.13500857 0.23764668 0.82900006 6.4647083e-40
-0.13375144 0.23822001 0.83100003 1.1095902e-39
-0.13216858 0.23822001 0.83100003 2.116908e-39
-0.13058572 0.23822001 0.83100003 3.1274543e-39
-0.12931333 0.23879334 0.83300006 3.1278103e-39
-0.12741999 0.23822001 0.83100003 3.1285249e-39
-0.22032857 0.41710001 1.455 2.394557e-39
-0.21666001 0.41538003 1.4490001 1.752782e-39
-0.21301429 0.41366002 1.4430001 2.029722e-39
-0.21026573 0.41366002 1.4430001 2.3967122e-39
-0.20751715 0.41366002 1.4430001 2.2126909e-39
-0.20476858 0.41366002 1.4430001 2.0286696e-39
-0.20118 0.41194001 1.437 2.3960214e-39
-0.1976143 0.41022006 1.4310001 2.8551933e-39
-0.19162001 0.40334001 1.4070001 2.5796826e-39
-0.18826857 0.40190667 1.4020001 2.304532e-39
-0.18480381 0.40018669 1.396 2.4889191e-39
-0.18214476 0.40018669 1.396 2.7626291e-39
-0.17948572 0.40018669 1.396 2.7629864e-39
-0.17682667 0.40018669 1.396 2.7629836e-39
-0.17341906 0.39846671 1.3900001 2.5811021e-39
-0.17015715 0.39703336 1.3850001 2.3970766e-39
-0.16679335 0.39531335 1.3790001 2.3970808e-39
-0.16357145 0.39388004 1.3740001 2.4882058e-39
-0.1609543 0.39388004 1.3740001 2.947033e-39
-0.15764572 0.39216 1.368 3.4065636e-39
-0.15447333 0.39072666 1.363 2.4885617e-39
-0.15132 0.38929334 1.358 1.6620409e-39
-0.14807621 0.38757336 1.3520001 2.0297402e-39
-0.14550097 0.38757336 1.3520001 2.4889205e-39
-0.14239715 0.38614002 1.3470001 2.5811189e-39
-0.13931239 0.38470668 1.342 2.7637123e-39
-0.13614477 0.38298666 1.3360001 2.7629934e-39
-0.1331 0.38155335 1.3310001 2.8559009e-39
-0.13007429 0.38012004 1.3260001 2.8569743e-39
-0.12754858 0.38012004 1.3260001 2.9480937e-39
-0.12360859 0.37582001 1.3110001 2.9480966e-39
-0.12111144 0.37582001 1.3110001 3.0399292e-39
-0.11816191 0.3743867 1.3060001 3.3157917e-39
-0.11523144 0.37295339 1.3010001 3.5909478e-39
-0.11275335 0.37295339 1.3010001 3.1317774e-39
-0.10985143 0.37152001 1.296 2.6736733e-39
-0.10696857 0.37008667 1.291 2.7658661e-39
-0.10418572 0.36894003 1.2870001 2.947735e-39
-0.10133905 0.36750668 1.2820001 2.8555324e-39
-0.098511435 0.36607334 1.2770001 2.8562569e-39
-0.095702864 0.36464 1.2720001 2.5807588e-39
-0.092986666 0.36349332 1.268 2.3970948e-39
-0.090214282 0.36205998 1.263 2.4889373e-39
-0.087530479 0.36091334 1.2590001 2.5807672e-39
-0.08513239 0.36091334 1.2590001 2.4892834e-39
-0.082405716 0.35947999 1.2540001 2.4892806e-39
-0.080017149 0.35947999 1.2540001 2.2141314e-39
-0.077319048 0.35804671 1.2490001 1.9382648e-39
-0.074699998 0.35689998 1.245 2.7644256e-39
-0.071805716 0.35432002 1.2360001 3.5909422e-39
-0.069451429 0.35432002 1.2360001 2.9480923e-39
-0.066880003 0.35317335 1.2320001 2.3970794e-39
-0.064271435 0.35174003 1.2270001 2.7651402e-39
-0.061732382 0.35059336 1.223 3.1324822e-39
-0.059208576 0.34944668 1.2190001 3.1324822e-39
-0.056653336 0.34801337 1.2140001 3.1321235e-39
-0.054161906 0.3468667 1.21 2.9480937e-39
-0.051685717 0.34571999 1.2060001 2.855552e-39
-0.049388576 0.34571999 1.2060001 2.9470386e-39
-0.046935238 0.34457332 1.202 3.1321361e-39
-0.044460002 0.34314001 1.197 2.9495343e-39
-0.041898094 0.34084666 1.189 2.8569869e-39
-0.039633334 0.34084666 1.189 2.9484707e-39
-0.037117146 0.33855337 1.1810001 3.1321305e-39
-0.034749523 0.33740667 1.177 3.3157903e-39
-0.032397144 0.33626002 1.1730001 3.499457e-39
-0.030060001 0.33511335 1.169 3.3157805e-39
-0.027738096 0.3339667 1.1650001 3.1317465e-39
-0.025519049 0.3339667 1.1650001 3.4990843e-39
-0.023220001 0.33282 1.161 3.9568241e-39
-0.020936191 0.33167335 1.1570001 4.0482994e-39
-0.018732382 0.33167335 1.1570001 4.1383412e-39
-0.016471429 0.33052668 1.153 3.9553891e-39
-0.014238096 0.32966667 1.1500001 3.7720839e-39
-0.012005714 0.32852 1.146 3.7724496e-39
-0.0098228576 0.32852 1.146 3.7720853e-39
-0.0076400004 0.32852 1.146 4.2312557e-39
-0.0054380959 0.32737336 1.1420001 4.7815485e-39
-0.0032514285 0.32622665 1.138 4.2294565e-39
-0.0010838095 0.32622665 1.138 3.6780862e-39
0.0010800001 0.32508001 1.1340001 3.3107456e-39
0.0032400002 0.32508001 1.1340001 2.9430435e-39
0.0054000001 0.32508001 1.1340001 2.3920305e-39
0.0075600008 0.32508001 1.1340001 1.9324929e-39
0.0097200004 0.32508001 1.1340001 1.9321341e-39
0.011848572 0.32422 1.131 1.9321341e-39
0.014002858 0.32422 1.131 1.9321341e-39
0.016100001 0.32307336 1.1270001 1.9317782e-39
0.018246669 0.32307336 1.1270001 2.0236165e-39
0.020393334 0.32307336 1.1270001 2.1158093e-39
0.022540001 0.32307336 1.1270001 1.8403015e-39
0.024774285 0.32422 1.131 1.5647964e-39
0.026833337 0.32307336 1.1270001 2.0239752e-39
0.029082857 0.32422 1.131 2.5746295e-39
0.031237142 0.32422 1.131 2.2987643e-39
0.033273336 0.32307336 1.1270001 2.1150989e-39
0.035545714 0.32422 1.131 2.3906096e-39
0.037700001 0.32422 1.131 2.6668265e-39
0.039854284 0.32422 1.131 2.3913144e-39
0.042008571 0.32422 1.131 2.1158065e-39
0.044162858 0.32422 1.131 2.1158065e-39
0.046317145 0.32422 1.131 2.1158065e-39
0.048471428 0.32422 1.131 2.2984013e-39
0.050625715 0.32422 1.131 2.5742666e-39
0.052780002 0.32422 1.131 2.3905956e-39
0.054934289 0.32422 1.131 2.2069274e-39
0.057088573 0.32422 1.131 2.0221844e-39
0.059400003 0.32508001 1.1340001 1.931781e-39
0.061397146 0.32422 1.131 1.9314195e-39
0.063720003 0.32508001 1.1340001 1.9314223e-39
0.065880001 0.32508001 1.1340001 1.9314251e-39
0.068279997 0.32622665 1.138 2.0236165e-39
0.070200004 0.32508001 1.1340001 1.7484674e-39
0.072360002 0.32508001 1.1340001 1.5644418e-39
0.074519999 0.32508001 1.1340001 1.5655208e-39
0.076680005 0.32508001 1.1340001 1.565518e-39
0.078840002 0.32508001 1.1340001 1.7491862e-39
0.081 0.32508001 1.1340001 2.0239738e-39
0.083160006 0.32508001 1.1340001 2.0239724e-39
0.085320003 0.32508001 1.1340001 2.0239794e-39
0.087480001 0.32508001 1.1340001 2.023269e-39
0.089639999 0.32508001 1.1340001 2.0232606e-39
0.091800004 0.32508001 1.1340001 1.8403e-39
0.093960002 0.32508001 1.1340001 1.7477485e-39
0.09612 0.32508001 1.1340001 2.022899e-39
0.098280005 0.32508001 1.1340001 2.2984055e-39
0.10079429 0.32622665 1.138 2.390241e-39
0.10296191 0.32622665 1.138 2.4824353e-39
0.10476001 0.32508001 1.1340001 2.299123e-39
0.10692 0.32508001 1.1340001 2.1158093e-39
0.10908 0.32508001 1.1340001 2.0239724e-39
0.11163238 0.32622665 1.138 2.0239724e-39
0.1138 0.32622665 1.138 1.7484646e-39
0.11556 0.32508001 1.1340001 1.5640761e-39
0.11772001 0.32508001 1.1340001 1.8392239e-39
0.11988001 0.32508001 1.1340001 2.2065672e-39
0.12204001 0.32508001 1.1340001 2.1140171e-39
0.1242 0.32508001 1.1340001 2.1143744e-39
0.12680571 0.32622665 1.138 2.1161667e-39
0.12897334 0.32622665 1.138 2.1158079e-39
0.13114095 0.32622665 1.138 2.1150905e-39
0.13330857 0.32622665 1.138 2.2065672e-39
0.13547619 0.32622665 1.138 2.2980454e-39
0.13764381 0.32622665 1.138 2.3902396e-39
0.13981143 0.32622665 1.138 2.3905984e-39
0.14197905 0.32622665 1.138 2.3905998e-39
0.14414667 0.32622665 1.138 2.2991258e-39
0.14631429 0.32622665 1.138 2.2987643e-39
0.14848191 0.32622665 1.138 2.298044e-39
0.15064953 0.32622665 1.138 2.2987615e-39
0.15281714 0.32622665 1.138 2.3909557e-39
0.15498477 0.32622665 1.138 2.5746281e-39
0.15715237 0.32622665 1.138 2.5746281e-39
0.15876001 0.32508001 1.1340001 2.5749868e-39
0.16091999 0.32508001 1.1340001 2.3913158e-39
0.16308001 0.32508001 1.1340001 2.2998391e-39
0.16524 0.32508001 1.1340001 2.3001978e-39
0.1674 0.32508001 1.1340001 2.2998377e-39
0.16956 0.32508001 1.1340001 2.4831499e-39
0.17172001 0.32508001 1.1340001 2.758655e-39
0.17388 0.32508001 1.1340001 2.7590137e-39
0.17604001 0.32508001 1.1340001 2.758655e-39
0.17820001 0.32508001 1.1340001 3.125997e-39
0.18036 0.32508001 1.1340001 3.4940564e-39
0.18252 0.32508001 1.1340001 3.5866094e-39
0.18468001 0.32508001 1.1340001 3.678089e-39
0.18684 0.32508001 1.1340001 3.402228e-39
0.18966667 0.32622665 1.138 3.2192744e-39
0.19250859 0.32737336 1.1420001 3.3118274e-39
0.19468382 0.32737336 1.1420001 3.4958585e-39
0.19616953 0.32622665 1.138 3.5884129e-39
0.19903429 0.32737336 1.1420001 3.7717251e-39
0.20050476 0.32622665 1.138 3.8635606e-39
0.20338477 0.32737336 1.1420001 4.0475904e-39
0.20556001 0.32737336 1.1420001 4.0479491e-39
0.20773524 0.32737336 1.1420001 4.1397846e-39
0.21064572 0.32852 1.146 4.4156498e-39
0.21282858 0.32852 1.146 4.6911619e-39
0.21501143 0.32852 1.146 4.9670313e-39
0.21719429 0.32852 1.146 5.3361642e-39
0.21937715 0.32852 1.146 5.6138217e-39
0.22156 0.32852 1.146 5.9854754e-39
0.22374286 0.32852 1.146 6.2656524e-39
0.22592571 0.32852 1.146 6.6315665e-39
0.22890478 0.32966667 1.1500001 6.8141683e-39
0.23109525 0.32966667 1.1500001 7.0907524e-39
0.23328574 0.32966667 1.1500001 7.1840242e-39
0.2354762 0.32966667 1.1500001 7.3673365e-39
0.23766668 0.32966667 1.1500001 7.5506487e-39
0.23985717 0.32966667 1.1500001 7.7343155e-39
0.24267904 0.33052668 1.153 7.7343099e-39
0.24487522 0.33052668 1.153 7.7343113e-39
0.24707142 0.33052668 1.153 7.6424786e-39
0.25099713 0.33282 1.161 7.6428388e-39
0.25320855 0.33282 1.161 7.6439164e-39
0.25542 0.33282 1.161 7.6424786e-39
0.25763142 0.33282 1.161 7.6424758e-39
0.25984284 0.33282 1.161 7.6421115e-39
0.26295716 0.3339667 1.1650001 7.6417486e-39
0.26517621 0.3339667 1.1650001 7.6417486e-39
0.26739526 0.3339667 1.1650001 7.6424674e-39
0.26961431 0.3339667 1.1650001 7.6417556e-39
0.27276665 0.33511335 1.169 7.8257895e-39
0.27499333 0.33511335 1.169 8.0094563e-39
0.27816859 0.33626002 1.1730001 7.7343057e-39
0.28135905 0.33740667 1.177 7.4570042e-39
0.28360096 0.33740667 1.177 7.2736905e-39
0.28584287 0.33740667 1.177 7.0882273e-39
0.28906384 0.33855337 1.1810001 6.9042003e-39
0.29131335 0.33855337 1.1810001 6.7198119e-39
0.29455715 0.33970001 1.1850001 5.8914988e-39
0.29681432 0.33970001 1.1850001 5.0664212e-39
0.30008096 0.34084666 1.189 5.5230932e-39
0.30336285 0.34199333 1.1930001 6.0740893e-39
0.30563524 0.34199333 1.1930001 5.614895e-39
0.30893999 0.34314001 1.197 5.1571553e-39
0.31252 0.34457332 1.202 5.8003653e-39
0.31480953 0.34457332 1.202 6.4432096e-39
0.31815431 0.34571999 1.2060001 6.4435641e-39
0.32045144 0.34571999 1.2060001 6.4439312e-39
0.32381904 0.3468667 1.21 6.2609861e-39
0.32612383 0.3468667 1.21 6.1684402e-39
0.32951429 0.34801337 1.2140001 6.2595666e-39
0.33182669 0.34801337 1.2140001 6.3510322e-39
0.33413908 0.34801337 1.2140001 6.2591869e-39
0.33894572 0.35059336 1.223 6.2591813e-39
0.34239146 0.35174003 1.2270001 6.1673416e-39
0.34472859 0.35174003 1.2270001 6.1669842e-39
0.34706575 0.35174003 1.2270001 6.0747914e-39
0.35082671 0.35317335 1.2320001 6.0744299e-39
0.35317335 0.35317335 1.2320001 6.0744271e-39
0.35552001 0.35317335 1.2320001 6.165915e-39
0.35902858 0.35432002 1.2360001 5.9822552e-39
0.36255237 0.35546666 1.24 5.8886163e-39
0.3649143 0.35546666 1.24 5.5180359e-39
0.36727619 0.35546666 1.24 5.1506939e-39
0.37112856 0.35689998 1.245 4.6918766e-39
0.37349999 0.35689998 1.245 4.324173e-39
0.40660286 0.33167335 1.1570001 6.8185123e-39
0.40739334 0.33052668 1.153 7.0068651e-39
0.40958953 0.33052668 1.153 7.2845422e-39
0.4107143 0.32966667 1.1500001 7.559341e-39
0.4129048 0.32966667 1.1500001 7.6511877e-39
0.41509527 0.32966667 1.1500001 7.8352076e-39
0.41583428 0.32852 1.146 8.112498e-39
0.41801715 0.32852 1.146 8.4783952e-39
0.42020002 0.32852 1.146 7.742984e-39
0.42238286 0.32852 1.146 7.0083112e-39
0.42308384 0.32737336 1.1420001 7.2838289e-39
0.42525908 0.32737336 1.1420001 7.559341e-39
0.4274343 0.32737336 1.1420001 7.6522597e-39
0.42960954 0.32737336 1.1420001 7.7444455e-39
0.4302724 0.32622665 1.138 7.8366327e-39
0.43244001 0.32622665 1.138 7.928834e-39
0.43308005 0.32508001 1.1340001 8.2050663e-39
0.43524 0.32508001 1.1340001 8.5742076e-39
0.43624288 0.32422 1.131 8.942274e-39
0.43839714 0.32422 1.131 9.309623e-39
-0.2472619 0.22364287 0.77500004 1.2537538e-38
-0.24642 0.22421999 0.77700001 1.2537898e-38
-0.2455705 0.22479716 0.77900004 1.2629735e-38
-0.24408668 0.22479716 0.77900004 1.2813402e-38
-0.24260287 0.22479716 0.77900004 1.2629728e-38
-0.24111906 0.22479716 0.77900004 1.2537894e-38
-0.23963526 0.22479716 0.77900004 1.2537897e-38
-0.23815145 0.22479716 0.77900004 1.2629734e-38
-0.23697144 0.22508572 0.78000003 1.2537542e-38
-0.23548572 0.22508572 0.78000003 1.2445701e-38
-0.23400001 0.22508572 0.78000003 1.281268e-38
-0.23251429 0.22508572 0.78000003 1.3179666e-38
-0.23162098 0.22566287 0.78200006 1.2904162e-38
-0.23072001 0.22624001 0.78400004 1.2628656e-38
-0.22981143 0.22681715 0.78600001 1.253682e-38
-0.2283143 0.22681715 0.78600001 1.2536816e-38
-0.2273943 0.2273943 0.78800005 1.2536812e-38
-0.22589335 0.2273943 0.78800005 1.2629019e-38
-0.2243924 0.2273943 0.78800005 1.2537913e-38
-0.22289144 0.2273943 0.78800005 1.2537909e-38
-0.22139049 0.2273943 0.78800005 1.2629024e-38
-0.22016859 0.22768287 0.78900003 1.2720854e-38
-0.21866572 0.22768287 0.78900003 1.290488e-38
-0.21771333 0.22826 0.79100001 1.308891e-38
-0.21620667 0.22826 0.79100001 1.290488e-38
-0.2147 0.22826 0.79100001 1.272121e-38
-0.21319333 0.22826 0.79100001 1.2537542e-38
-0.21168666 0.22826 0.79100001 1.2446067e-38
-0.21071143 0.22883715 0.79300004 1.2629382e-38
-0.20920096 0.22883715 0.79300004 1.2813051e-38
-0.20769049 0.22883715 0.79300004 1.2629379e-38
-0.20618001 0.22883715 0.79300004 1.2537904e-38
-0.20466954 0.22883715 0.79300004 1.2537906e-38
-0.20418383 0.22999144 0.79700005 1.244607e-38
-0.20266572 0.22999144 0.79700005 1.262938e-38
-0.20140001 0.23028 0.79800004 1.2812335e-38
-0.19988 0.23028 0.79800004 1.2444995e-38
-0.19885714 0.23085715 0.80000001 1.2078007e-38
-0.19733332 0.23085715 0.80000001 1.2261675e-38
-0.19629906 0.2314343 0.80200005 1.2353868e-38
-0.19428571 0.23085715 0.80000001 1.2537539e-38
-0.19324382 0.2314343 0.80200005 1.2721566e-38
-0.19219428 0.23201142 0.80400002 1.2629728e-38
-0.19066286 0.23201142 0.80400002 1.2537176e-38
-0.18913142 0.23201142 0.80400002 1.2537178e-38
-0.1876 0.23201142 0.80400002 1.2629371e-38
-0.18653144 0.23258859 0.80600005 1.2629012e-38
-0.1849962 0.23258859 0.80600005 1.2720504e-38
-0.18346097 0.23258859 0.80600005 1.2537209e-38
-0.18192573 0.23258859 0.80600005 1.2353888e-38
-0.18039049 0.23258859 0.80600005 1.2262761e-38
-0.17929906 0.23316571 0.80800003 1.2172001e-38
-0.17820001 0.23374288 0.81000006 1.1896494e-38
-0.17665716 0.23374288 0.81000006 1.1712823e-38
-0.17554668 0.23432001 0.81200004 1.125293e-38
-0.17442858 0.23489714 0.81400001 1.0885225e-38
-0.1728781 0.23489714 0.81400001 1.0607922e-38
-0.17132762 0.23489714 0.81400001 1.0330979e-38
-0.16977714 0.23489714 0.81400001 9.5952175e-39
-0.16822666 0.23489714 0.81400001 8.7676078e-39
-0.16688095 0.23518573 0.81500006 8.3970246e-39
-0.16573429 0.23576286 0.81700003 8.0264302e-39
-0.1641781 0.23576286 0.81700003 7.7483888e-39
-0.16302001 0.23634002 0.81900007 7.4703796e-39
-0.16146001 0.23634002 0.81900007 6.9132779e-39
-0.16029048 0.23691715 0.82100004 6.448002e-39
-0.15872668 0.23691715 0.82100004 5.7047099e-39
-0.15716286 0.23691715 0.82100004 4.8695556e-39
-0.15559906 0.23691715 0.82100004 4.5011122e-39
-0.15403526 0.23691715 0.82100004 4.0411892e-39
-0.15247142 0.23691715 0.82100004 4.1329981e-39
-0.15090762 0.23691715 0.82100004 4.1329869e-39
-0.14934382 0.23691715 0.82100004 3.8578279e-39
-0.14742002 0.23634002 0.81900007 3.5826718e-39
-0.1462162 0.23691715 0.82100004 2.9459147e-39
-0.14465238 0.23691715 0.82100004 2.3898781e-39
-0.14413428 0.23864858 0.82700002 2.0218186e-39
-0.14255904 0.23864858 0.82700002 1.7459548e-39
-0.14098382 0.23864858 0.82700002 1.4711686e-39
-0.13816668 0.23922573 0.82900006 1.105986e-39
-0.22680287 0.42160287 1.4610001 2.8544688e-39
-0.22402 0.42160287 1.4610001 2.763348e-39
-0.22032857 0.41987145 1.455 2.4864051e-39
-0.21666001 0.41814002 1.4490001 2.2112546e-39
-0.21301429 0.4164086 1.4430001 2.4874771e-39
-0.21026573 0.4164086 1.4430001 2.8558995e-39
-0.20751715 0.4164086 1.4430001 2.4885631e-39
-0.20476858 0.4164086 1.4430001 2.2130567e-39
-0.20118 0.41467714 1.437 2.4882044e-39
-0.19678573 0.41121429 1.4250001 2.8551849e-39
-0.19162001 0.40602002 1.4070001 2.6715125e-39
-0.18826857 0.40457717 1.4020001 2.4878471e-39
-0.18559811 0.40457717 1.4020001 2.5793294e-39
-0.18214476 0.40284571 1.396 2.6711551e-39
-0.17948572 0.40284571 1.396 2.6711453e-39
-0.17682667 0.40284571 1.396 2.6707908e-39
-0.17341906 0.40111431 1.3900001 2.5803944e-39
-0.17015715 0.39967147 1.3850001 2.5807504e-39
-0.16751906 0.39967147 1.3850001 2.5807476e-39
-0.16416667 0.39794001 1.3790001 2.580393e-39
-0.1609543 0.39649716 1.3740001 2.8559051e-39
-0.15764572 0.3947657 1.368 3.0395761e-39
-0.15447333 0.39332286 1.363 2.4885631e-39
-0.15132 0.39188001 1.358 2.0304577e-39
-0.14807621 0.39014861 1.3520001 2.4885547e-39
-0.14496286 0.38870576 1.3470001 3.0399264e-39
-0.14239715 0.38870576 1.3470001 2.7644214e-39
-0.13931239 0.38726285 1.342 2.5800371e-39
-0.13614477 0.38553143 1.3360001 2.7637123e-39
-0.1331 0.38408861 1.3310001 2.8555436e-39
-0.13056476 0.38408861 1.3310001 3.0395691e-39
-0.12754858 0.38264573 1.3260001 3.223603e-39
-0.12360859 0.37831718 1.3110001 3.0399363e-39
-0.12111144 0.37831718 1.3110001 2.9480966e-39
-0.11816191 0.37687433 1.3060001 2.9480923e-39
-0.11523144 0.37543145 1.3010001 3.0402908e-39
-0.11275335 0.37543145 1.3010001 2.7651486e-39
-0.10985143 0.37398857 1.296 2.4900009e-39
-0.10696857 0.37254572 1.291 2.6729544e-39
-0.10418572 0.37139145 1.2870001 2.9480966e-39
-0.10133905 0.3699486 1.2820001 3.0399278e-39
-0.098511435 0.36850575 1.2770001 3.223603e-39
-0.095702864 0.36706287 1.2720001 2.6725957e-39
-0.092986666 0.36590856 1.268 2.121954e-39
-0.090571426 0.36590856 1.268 2.5807854e-39
-0.087808572 0.36446571 1.263 3.0392328e-39
-0.08513239 0.36331144 1.2590001 2.8562667e-39
-0.082405716 0.36186856 1.2540001 2.6733089e-39
-0.080017149 0.36186856 1.2540001 2.5811105e-39
-0.077319048 0.36042574 1.2490001 2.4903498e-39
-0.0744 0.35782856 1.24 2.8566156e-39
-0.071805716 0.35667431 1.2360001 3.3154343e-39
-0.069451429 0.35667431 1.2360001 2.8562569e-39
-0.066880003 0.35552001 1.2320001 2.489275e-39
-0.064271435 0.35407716 1.2270001 2.7651416e-39
-0.061732382 0.35292286 1.223 3.1328423e-39
-0.059208576 0.35176858 1.2190001 2.9488126e-39
-0.056653336 0.35032576 1.2140001 2.8569757e-39
-0.054340959 0.35032576 1.2140001 3.040288e-39
-0.051857144 0.34917143 1.21 3.2239674e-39
-0.049388576 0.34801716 1.2060001 3.132499e-39
-0.046935238 0.34686285 1.202 3.0410138e-39
-0.044460002 0.34542 1.197 2.8573359e-39
-0.041898094 0.34311143 1.189 2.7655046e-39
-0.039633334 0.34311143 1.189 2.8569869e-39
-0.037117146 0.34080291 1.1810001 2.9506119e-39
-0.034749523 0.33964857 1.177 3.1339213e-39
-0.032507621 0.33964857 1.177 3.3172266e-39
-0.03016286 0.33849433 1.1730001 3.2250268e-39
-0.027833333 0.33734 1.169 3.1328283e-39
-0.025519049 0.33618572 1.1650001 3.4076131e-39
-0.023220001 0.33503142 1.161 3.773516e-39
-0.021008572 0.33503142 1.161 3.8649886e-39
-0.018732382 0.33387715 1.1570001 3.9546717e-39
-0.016471429 0.33272287 1.153 3.8639138e-39
-0.014238096 0.33185717 1.1500001 3.7724482e-39
-0.012005714 0.33070287 1.146 3.7724608e-39
-0.0098228576 0.33070287 1.146 3.772451e-39
-0.0076400004 0.33070287 1.146 4.047589e-39
-0.0054380959 0.3295486 1.1420001 4.414568e-39
-0.0032514285 0.32839426 1.138 4.1386986e-39
-0.0010838095 0.32839426 1.138 3.8631921e-39
0.0010800001 0.32724002 1.1340001 3.771358e-39
0.0032314286 0.32637429 1.131 3.6795211e-39
0.0053857146 0.32637429 1.131 3.2192674e-39
0.0075400001 0.32637429 1.131 2.7593725e-39
0.0096600009 0.32522002 1.1270001 2.6671782e-39
0.011806668 0.32522002 1.1270001 2.6668181e-39
0.01390381 0.32406572 1.123 2.4827884e-39
0.015999999 0.32320002 1.12 2.2991216e-39
0.018181903 0.32406572 1.123 2.2072917e-39
0.020320952 0.32406572 1.123 2.2076462e-39
0.022460001 0.32406572 1.123 2.0239724e-39
0.024686668 0.32522002 1.1270001 1.8399441e-39
0.026738096 0.32406572 1.123 2.1158121e-39
0.028980002 0.32522002 1.1270001 2.2987657e-39
0.031126669 0.32522002 1.1270001 2.2069316e-39
0.033155236 0.32406572 1.123 2.0232704e-39
0.035420001 0.32522002 1.1270001 2.2073099e-39
0.037566669 0.32522002 1.1270001 2.391327e-39
0.039713338 0.32522002 1.1270001 2.2076448e-39
0.041860003 0.32522002 1.1270001 2.0239724e-39
0.044006672 0.32522002 1.1270001 2.0239724e-39
0.046153337 0.32522002 1.1270001 2.0239724e-39
0.048300002 0.32522002 1.1270001 2.2072847e-39
0.050625715 0.32637429 1.131 2.3909557e-39
0.052593336 0.32522002 1.1270001 2.2991202e-39
0.054740004 0.32522002 1.1270001 2.2072889e-39
0.056886673 0.32522002 1.1270001 2.1154576e-39
0.059033338 0.32522002 1.1270001 2.0239766e-39
0.06096286 0.32406572 1.123 1.9317796e-39
0.063326672 0.32522002 1.1270001 1.8392239e-39
0.06547334 0.32522002 1.1270001 1.7477457e-39
0.067860007 0.32637429 1.131 1.5640761e-39
0.070014283 0.32637429 1.131 1.6562717e-39
0.072168574 0.32637429 1.131 1.7481142e-39
0.074322857 0.32637429 1.131 1.7481212e-39
0.076477148 0.32637429 1.131 1.748117e-39
0.078631431 0.32637429 1.131 1.9317838e-39
0.080785714 0.32637429 1.131 2.0239752e-39
0.082940005 0.32637429 1.131 2.0239724e-39
0.085094288 0.32637429 1.131 2.0239837e-39
0.087248571 0.32637429 1.131 2.0236375e-39
0.089402854 0.32637429 1.131 2.0236235e-39
0.091557145 0.32637429 1.131 1.9317754e-39
0.093711428 0.32637429 1.131 1.8403015e-39
0.095865719 0.32637429 1.131 2.1150933e-39
0.098020002 0.32637429 1.131 2.389525e-39
0.10017429 0.32637429 1.131 2.4824381e-39
0.10232858 0.32637429 1.131 2.4824381e-39
0.10448286 0.32637429 1.131 2.390604e-39
0.10663714 0.32637429 1.131 2.2994831e-39
0.10879143 0.32637429 1.131 2.2076448e-39
0.11094572 0.32637429 1.131 2.0239724e-39
0.1131 0.32637429 1.131 1.9321369e-39
0.11525429 0.32637429 1.131 1.839584e-39
0.11740857 0.32637429 1.131 2.1150905e-39
0.11956286 0.32637429 1.131 2.3909585e-39
0.12171714 0.32637429 1.131 2.2980496e-39
0.12387143 0.32637429 1.131 2.2976881e-39
0.12602572 0.32637429 1.131 2.2076448e-39
0.12852001 0.32724002 1.1340001 2.1165268e-39
0.13068001 0.32724002 1.1340001 2.2998391e-39
0.13284001 0.32724002 1.1340001 2.3913158e-39
0.13500002 0.32724002 1.1340001 2.4827926e-39
0.13716 0.32724002 1.1340001 2.5746281e-39
0.13932002 0.32724002 1.1340001 2.5746281e-39
0.14148 0.32724002 1.1340001 2.5749868e-39
0.14364001 0.32724002 1.1340001 2.4831513e-39
0.14541429 0.32637429 1.131 2.4831499e-39
0.14756857 0.32637429 1.131 2.4827912e-39
0.14972286 0.32637429 1.131 2.4824325e-39
0.15187715 0.32637429 1.131 2.6668223e-39
0.15403143 0.32637429 1.131 2.850852e-39
0.15618572 0.32637429 1.131 2.8504947e-39
0.15834001 0.32637429 1.131 2.9423302e-39
0.1604943 0.32637429 1.131 2.8508534e-39
0.16264857 0.32637429 1.131 2.8515695e-39
0.16480285 0.32637429 1.131 2.8519282e-39
0.16695715 0.32637429 1.131 2.8522856e-39
0.16911143 0.32637429 1.131 2.9448371e-39
0.17172001 0.32724002 1.1340001 3.1292256e-39
0.17342 0.32637429 1.131 3.2207024e-39
0.17604001 0.32724002 1.1340001 3.3121791e-39
0.17820001 0.32724002 1.1340001 3.5876856e-39
0.18036 0.32724002 1.1340001 3.8631921e-39
0.18252 0.32724002 1.1340001 3.955029e-39
0.18468001 0.32724002 1.1340001 4.1390615e-39
0.18684 0.32724002 1.1340001 4.0468715e-39
0.18900001 0.32724002 1.1340001 4.0468715e-39
0.19116001 0.32724002 1.1340001 4.1379909e-39
0.19332001 0.32724002 1.1340001 4.2316201e-39
